0.249833,0.249818,0.249802,0.249787,0.249772,0.249757,0.249742,0.249727,0.249711,0.249696,0.249681,0.249666,0.249651,0.249636,0.249621,0.249605,0.24959,0.249575,0.24956,0.249545,0.24953,0.249514,0.249499,0.249484,0.249469,0.249454,0.249439,0.249423,0.249408,0.249393,0.249378,0.249363,0.249348,0.249332,0.249317,0.249302,0.249287,0.249272,0.249257,0.249241,0.249226,0.249211,0.249196,0.249181,0.249166,0.24915,0.249135,0.24912,0.249105,0.24909,0.249075,0.249059,0.249044,0.249029,0.249014,0.248999,0.248984,0.248969,0.248953,0.248938,0.248923,0.248908,0.248893,0.248878,0.248862,0.248847,0.248832,0.248817,0.248802,0.248787,0.248771,0.248756,0.248741,0.248726,0.248711,0.248696,0.24868,0.248665,0.24865,0.248635,0.24862,0.248605,0.248589,0.248574,0.248559,0.248544,0.248529,0.248514,0.248498,0.248483,0.248468,0.248453,0.248438,0.248423,0.248407,0.248392,0.248377,0.248362,0.248347,0.248332,0.248317,0.248301,0.248286,0.248271,0.248256,0.248241,0.248226,0.24821,0.248195,0.24818,0.248165,0.24815,0.248135,0.248119,0.248104,0.248089,0.248074,0.248059,0.248044,0.248028,0.248013,0.247998,0.247983,0.247968,0.247953,0.247937,0.247922,0.247907,0.247892,0.247877,0.247862,0.247846,0.247831,0.247816,0.247801,0.247786,0.247771,0.247755,0.24774,0.247725,0.24771,0.247695,0.24768,0.247665,0.247649,0.247634,0.247619,0.247604,0.247589,0.247574,0.247558,0.247543,0.247528,0.247513,0.247498,0.247483,0.247467,0.247452,0.247437,0.247422,0.247407,0.247392,0.247376,0.247361,0.247346,0.247331,0.247316,0.247301,0.247285,0.24727,0.247255,0.24724,0.247225,0.24721,0.247194,0.247179,0.247164,0.247149,0.247134,0.247119,0.247103,0.247088,0.247073,0.247058,0.247043,0.247028,0.247013,0.246997,0.246982,0.246967,0.246952,0.246937,0.246922,0.246906,0.246891,0.246876,0.246861,0.246846,0.246831,0.246815,0.2468,0.246785,0.24677,0.246755,0.24674,0.246724,0.246709,0.246694,0.246679,0.246664,0.246649,0.246633,0.246618,0.246603,0.246588,0.246573,0.246558,0.246542,0.246527,0.246512,0.246497,0.246482,0.246467,0.246451,0.246436,0.246421,0.246406,0.246391,0.246376,0.246361,0.246345,0.24633,0.246315,0.2463,0.246285,0.24627,0.246254,0.246239,0.246224,0.246209,0.246194,0.246179,0.246163,0.246148,0.246133,0.246118,0.246103,0.246088,0.246072,0.246057,0.246042,0.246027,0.246012,0.245997,0.245981,0.245966,0.245951,0.245936,0.245921,0.245906,0.24589,0.245875,0.24586,0.245845,0.24583,0.245815,0.245799,0.245784,0.245769,0.245754,0.245739,0.245724,0.245709,0.245693,0.245678,0.245663,0.245648,0.245633,0.245618,0.245602,0.245587,0.245572,0.245557,0.245542,0.245527,0.245511,0.245496,0.245481,0.245466,0.245451,0.245436,0.24542,0.245405,0.24539,0.245375,0.24536,0.245345,0.245329,0.245314,0.245299,0.245284,0.245269,0.245254,0.245238,0.245223,0.245208,0.245193,0.245178,0.245163,0.245147,0.245132,0.245117,0.245102,0.245087,0.245072,0.245057,0.245041,0.245026,0.245011,0.244996,0.244981,0.244966,0.24495,0.244935,0.24492,0.244905,0.24489,0.244875,0.244859,0.244844,0.244829,0.244814,0.244799,0.244784,0.244768,0.244753,0.244738,0.244723,0.244708,0.244693,0.244677,0.244662,0.244647,0.244632,0.244617,0.244602,0.244586,0.244571,0.244556,0.244541,0.244526,0.244511,0.244495,0.24448,0.244465,0.24445,0.244435,0.24442,0.244405,0.244389,0.244374,0.244359,0.244344,0.244329,0.244314,0.244298,0.244283,0.244268,0.244253,0.244238,0.244223,0.244207,0.244192,0.244177,0.244162,0.244147,0.244132,0.244116,0.244101,0.244086,0.244071,0.244056,0.244041,0.244025,0.24401,0.243995,0.24398,0.243965,0.24395,0.243934,0.243919,0.243904,0.243889,0.243874
0.250852,0.250837,0.250821,0.250806,0.250791,0.250776,0.250761,0.250746,0.25073,0.250715,0.2507,0.250685,0.25067,0.250655,0.250639,0.250624,0.250609,0.250594,0.250579,0.250564,0.250548,0.250533,0.250518,0.250503,0.250488,0.250473,0.250457,0.250442,0.250427,0.250412,0.250397,0.250382,0.250367,0.250351,0.250336,0.250321,0.250306,0.250291,0.250276,0.25026,0.250245,0.25023,0.250215,0.2502,0.250185,0.250169,0.250154,0.250139,0.250124,0.250109,0.250094,0.250078,0.250063,0.250048,0.250033,0.250018,0.250003,0.249987,0.249972,0.249957,0.249942,0.249927,0.249912,0.249896,0.249881,0.249866,0.249851,0.249836,0.249821,0.249806,0.24979,0.249775,0.24976,0.249745,0.24973,0.249715,0.249699,0.249684,0.249669,0.249654,0.249639,0.249624,0.249608,0.249593,0.249578,0.249563,0.249548,0.249533,0.249517,0.249502,0.249487,0.249472,0.249457,0.249442,0.249426,0.249411,0.249396,0.249381,0.249366,0.249351,0.249335,0.24932,0.249305,0.24929,0.249275,0.24926,0.249244,0.249229,0.249214,0.249199,0.249184,0.249169,0.249154,0.249138,0.249123,0.249108,0.249093,0.249078,0.249063,0.249047,0.249032,0.249017,0.249002,0.248987,0.248972,0.248956,0.248941,0.248926,0.248911,0.248896,0.248881,0.248865,0.24885,0.248835,0.24882,0.248805,0.24879,0.248774,0.248759,0.248744,0.248729,0.248714,0.248699,0.248683,0.248668,0.248653,0.248638,0.248623,0.248608,0.248592,0.248577,0.248562,0.248547,0.248532,0.248517,0.248502,0.248486,0.248471,0.248456,0.248441,0.248426,0.248411,0.248395,0.24838,0.248365,0.24835,0.248335,0.24832,0.248304,0.248289,0.248274,0.248259,0.248244,0.248229,0.248213,0.248198,0.248183,0.248168,0.248153,0.248138,0.248122,0.248107,0.248092,0.248077,0.248062,0.248047,0.248031,0.248016,0.248001,0.247986,0.247971,0.247956,0.24794,0.247925,0.24791,0.247895,0.24788,0.247865,0.24785,0.247834,0.247819,0.247804,0.247789,0.247774,0.247759,0.247743,0.247728,0.247713,0.247698,0.247683,0.247668,0.247652,0.247637,0.247622,0.247607,0.247592,0.247577,0.247561,0.247546,0.247531,0.247516,0.247501,0.247486,0.24747,0.247455,0.24744,0.247425,0.24741,0.247395,0.247379,0.247364,0.247349,0.247334,0.247319,0.247304,0.247288,0.247273,0.247258,0.247243,0.247228,0.247213,0.247198,0.247182,0.247167,0.247152,0.247137,0.247122,0.247107,0.247091,0.247076,0.247061,0.247046,0.247031,0.247016,0.247,0.246985,0.24697,0.246955,0.24694,0.246925,0.246909,0.246894,0.246879,0.246864,0.246849,0.246834,0.246818,0.246803,0.246788,0.246773,0.246758,0.246743,0.246727,0.246712,0.246697,0.246682,0.246667,0.246652,0.246636,0.246621,0.246606,0.246591,0.246576,0.246561,0.246546,0.24653,0.246515,0.2465,0.246485,0.24647,0.246455,0.246439,0.246424,0.246409,0.246394,0.246379,0.246364,0.246348,0.246333,0.246318,0.246303,0.246288,0.246273,0.246257,0.246242,0.246227,0.246212,0.246197,0.246182,0.246166,0.246151,0.246136,0.246121,0.246106,0.246091,0.246075,0.24606,0.246045,0.24603,0.246015,0.246,0.245984,0.245969,0.245954,0.245939,0.245924,0.245909,0.245894,0.245878,0.245863,0.245848,0.245833,0.245818,0.245803,0.245787,0.245772,0.245757,0.245742,0.245727,0.245712,0.245696,0.245681,0.245666,0.245651,0.245636,0.245621,0.245605,0.24559,0.245575,0.24556,0.245545,0.24553,0.245514,0.245499,0.245484,0.245469,0.245454,0.245439,0.245423,0.245408,0.245393,0.245378,0.245363,0.245348,0.245332,0.245317,0.245302,0.245287,0.245272,0.245257,0.245242,0.245226,0.245211,0.245196,0.245181,0.245166,0.245151,0.245135,0.24512,0.245105,0.24509,0.245075,0.24506,0.245044,0.245029,0.245014,0.244999,0.244984,0.244969,0.244953,0.244938,0.244923,0.244908,0.244893
0.251871,0.251856,0.25184,0.251825,0.25181,0.251795,0.25178,0.251765,0.251749,0.251734,0.251719,0.251704,0.251689,0.251674,0.251658,0.251643,0.251628,0.251613,0.251598,0.251583,0.251567,0.251552,0.251537,0.251522,0.251507,0.251492,0.251476,0.251461,0.251446,0.251431,0.251416,0.251401,0.251385,0.25137,0.251355,0.25134,0.251325,0.25131,0.251295,0.251279,0.251264,0.251249,0.251234,0.251219,0.251204,0.251188,0.251173,0.251158,0.251143,0.251128,0.251113,0.251097,0.251082,0.251067,0.251052,0.251037,0.251022,0.251006,0.250991,0.250976,0.250961,0.250946,0.250931,0.250915,0.2509,0.250885,0.25087,0.250855,0.25084,0.250824,0.250809,0.250794,0.250779,0.250764,0.250749,0.250733,0.250718,0.250703,0.250688,0.250673,0.250658,0.250643,0.250627,0.250612,0.250597,0.250582,0.250567,0.250552,0.250536,0.250521,0.250506,0.250491,0.250476,0.250461,0.250445,0.25043,0.250415,0.2504,0.250385,0.25037,0.250354,0.250339,0.250324,0.250309,0.250294,0.250279,0.250263,0.250248,0.250233,0.250218,0.250203,0.250188,0.250172,0.250157,0.250142,0.250127,0.250112,0.250097,0.250081,0.250066,0.250051,0.250036,0.250021,0.250006,0.249991,0.249975,0.24996,0.249945,0.24993,0.249915,0.2499,0.249884,0.249869,0.249854,0.249839,0.249824,0.249809,0.249793,0.249778,0.249763,0.249748,0.249733,0.249718,0.249702,0.249687,0.249672,0.249657,0.249642,0.249627,0.249611,0.249596,0.249581,0.249566,0.249551,0.249536,0.24952,0.249505,0.24949,0.249475,0.24946,0.249445,0.249429,0.249414,0.249399,0.249384,0.249369,0.249354,0.249339,0.249323,0.249308,0.249293,0.249278,0.249263,0.249248,0.249232,0.249217,0.249202,0.249187,0.249172,0.249157,0.249141,0.249126,0.249111,0.249096,0.249081,0.249066,0.24905,0.249035,0.24902,0.249005,0.24899,0.248975,0.248959,0.248944,0.248929,0.248914,0.248899,0.248884,0.248868,0.248853,0.248838,0.248823,0.248808,0.248793,0.248777,0.248762,0.248747,0.248732,0.248717,0.248702,0.248687,0.248671,0.248656,0.248641,0.248626,0.248611,0.248596,0.24858,0.248565,0.24855,0.248535,0.24852,0.248505,0.248489,0.248474,0.248459,0.248444,0.248429,0.248414,0.248398,0.248383,0.248368,0.248353,0.248338,0.248323,0.248307,0.248292,0.248277,0.248262,0.248247,0.248232,0.248216,0.248201,0.248186,0.248171,0.248156,0.248141,0.248125,0.24811,0.248095,0.24808,0.248065,0.24805,0.248035,0.248019,0.248004,0.247989,0.247974,0.247959,0.247944,0.247928,0.247913,0.247898,0.247883,0.247868,0.247853,0.247837,0.247822,0.247807,0.247792,0.247777,0.247762,0.247746,0.247731,0.247716,0.247701,0.247686,0.247671,0.247655,0.24764,0.247625,0.24761,0.247595,0.24758,0.247564,0.247549,0.247534,0.247519,0.247504,0.247489,0.247473,0.247458,0.247443,0.247428,0.247413,0.247398,0.247383,0.247367,0.247352,0.247337,0.247322,0.247307,0.247292,0.247276,0.247261,0.247246,0.247231,0.247216,0.247201,0.247185,0.24717,0.247155,0.24714,0.247125,0.24711,0.247094,0.247079,0.247064,0.247049,0.247034,0.247019,0.247003,0.246988,0.246973,0.246958,0.246943,0.246928,0.246912,0.246897,0.246882,0.246867,0.246852,0.246837,0.246821,0.246806,0.246791,0.246776,0.246761,0.246746,0.246731,0.246715,0.2467,0.246685,0.24667,0.246655,0.24664,0.246624,0.246609,0.246594,0.246579,0.246564,0.246549,0.246533,0.246518,0.246503,0.246488,0.246473,0.246458,0.246442,0.246427,0.246412,0.246397,0.246382,0.246367,0.246351,0.246336,0.246321,0.246306,0.246291,0.246276,0.24626,0.246245,0.24623,0.246215,0.2462,0.246185,0.246169,0.246154,0.246139,0.246124,0.246109,0.246094,0.246079,0.246063,0.246048,0.246033,0.246018,0.246003,0.245988,0.245972,0.245957,0.245942,0.245927,0.245912
0.25289,0.252874,0.252859,0.252844,0.252829,0.252814,0.252799,0.252784,0.252768,0.252753,0.252738,0.252723,0.252708,0.252693,0.252677,0.252662,0.252647,0.252632,0.252617,0.252602,0.252586,0.252571,0.252556,0.252541,0.252526,0.252511,0.252495,0.25248,0.252465,0.25245,0.252435,0.25242,0.252404,0.252389,0.252374,0.252359,0.252344,0.252329,0.252313,0.252298,0.252283,0.252268,0.252253,0.252238,0.252222,0.252207,0.252192,0.252177,0.252162,0.252147,0.252132,0.252116,0.252101,0.252086,0.252071,0.252056,0.252041,0.252025,0.25201,0.251995,0.25198,0.251965,0.25195,0.251934,0.251919,0.251904,0.251889,0.251874,0.251859,0.251843,0.251828,0.251813,0.251798,0.251783,0.251768,0.251752,0.251737,0.251722,0.251707,0.251692,0.251677,0.251661,0.251646,0.251631,0.251616,0.251601,0.251586,0.25157,0.251555,0.25154,0.251525,0.25151,0.251495,0.25148,0.251464,0.251449,0.251434,0.251419,0.251404,0.251389,0.251373,0.251358,0.251343,0.251328,0.251313,0.251298,0.251282,0.251267,0.251252,0.251237,0.251222,0.251207,0.251191,0.251176,0.251161,0.251146,0.251131,0.251116,0.2511,0.251085,0.25107,0.251055,0.25104,0.251025,0.251009,0.250994,0.250979,0.250964,0.250949,0.250934,0.250918,0.250903,0.250888,0.250873,0.250858,0.250843,0.250828,0.250812,0.250797,0.250782,0.250767,0.250752,0.250737,0.250721,0.250706,0.250691,0.250676,0.250661,0.250646,0.25063,0.250615,0.2506,0.250585,0.25057,0.250555,0.250539,0.250524,0.250509,0.250494,0.250479,0.250464,0.250448,0.250433,0.250418,0.250403,0.250388,0.250373,0.250357,0.250342,0.250327,0.250312,0.250297,0.250282,0.250266,0.250251,0.250236,0.250221,0.250206,0.250191,0.250176,0.25016,0.250145,0.25013,0.250115,0.2501,0.250085,0.250069,0.250054,0.250039,0.250024,0.250009,0.249994,0.249978,0.249963,0.249948,0.249933,0.249918,0.249903,0.249887,0.249872,0.249857,0.249842,0.249827,0.249812,0.249796,0.249781,0.249766,0.249751,0.249736,0.249721,0.249705,0.24969,0.249675,0.24966,0.249645,0.24963,0.249614,0.249599,0.249584,0.249569,0.249554,0.249539,0.249524,0.249508,0.249493,0.249478,0.249463,0.249448,0.249433,0.249417,0.249402,0.249387,0.249372,0.249357,0.249342,0.249326,0.249311,0.249296,0.249281,0.249266,0.249251,0.249235,0.24922,0.249205,0.24919,0.249175,0.24916,0.249144,0.249129,0.249114,0.249099,0.249084,0.249069,0.249053,0.249038,0.249023,0.249008,0.248993,0.248978,0.248962,0.248947,0.248932,0.248917,0.248902,0.248887,0.248872,0.248856,0.248841,0.248826,0.248811,0.248796,0.248781,0.248765,0.24875,0.248735,0.24872,0.248705,0.24869,0.248674,0.248659,0.248644,0.248629,0.248614,0.248599,0.248583,0.248568,0.248553,0.248538,0.248523,0.248508,0.248492,0.248477,0.248462,0.248447,0.248432,0.248417,0.248401,0.248386,0.248371,0.248356,0.248341,0.248326,0.248311,0.248295,0.24828,0.248265,0.24825,0.248235,0.24822,0.248204,0.248189,0.248174,0.248159,0.248144,0.248129,0.248113,0.248098,0.248083,0.248068,0.248053,0.248038,0.248022,0.248007,0.247992,0.247977,0.247962,0.247947,0.247931,0.247916,0.247901,0.247886,0.247871,0.247856,0.24784,0.247825,0.24781,0.247795,0.24778,0.247765,0.247749,0.247734,0.247719,0.247704,0.247689,0.247674,0.247659,0.247643,0.247628,0.247613,0.247598,0.247583,0.247568,0.247552,0.247537,0.247522,0.247507,0.247492,0.247477,0.247461,0.247446,0.247431,0.247416,0.247401,0.247386,0.24737,0.247355,0.24734,0.247325,0.24731,0.247295,0.247279,0.247264,0.247249,0.247234,0.247219,0.247204,0.247188,0.247173,0.247158,0.247143,0.247128,0.247113,0.247097,0.247082,0.247067,0.247052,0.247037,0.247022,0.247007,0.246991,0.246976,0.246961,0.246946,0.246931
0.253909,0.253893,0.253878,0.253863,0.253848,0.253833,0.253818,0.253802,0.253787,0.253772,0.253757,0.253742,0.253727,0.253711,0.253696,0.253681,0.253666,0.253651,0.253636,0.253621,0.253605,0.25359,0.253575,0.25356,0.253545,0.25353,0.253514,0.253499,0.253484,0.253469,0.253454,0.253439,0.253423,0.253408,0.253393,0.253378,0.253363,0.253348,0.253332,0.253317,0.253302,0.253287,0.253272,0.253257,0.253241,0.253226,0.253211,0.253196,0.253181,0.253166,0.25315,0.253135,0.25312,0.253105,0.25309,0.253075,0.253059,0.253044,0.253029,0.253014,0.252999,0.252984,0.252969,0.252953,0.252938,0.252923,0.252908,0.252893,0.252878,0.252862,0.252847,0.252832,0.252817,0.252802,0.252787,0.252771,0.252756,0.252741,0.252726,0.252711,0.252696,0.25268,0.252665,0.25265,0.252635,0.25262,0.252605,0.252589,0.252574,0.252559,0.252544,0.252529,0.252514,0.252498,0.252483,0.252468,0.252453,0.252438,0.252423,0.252407,0.252392,0.252377,0.252362,0.252347,0.252332,0.252317,0.252301,0.252286,0.252271,0.252256,0.252241,0.252226,0.25221,0.252195,0.25218,0.252165,0.25215,0.252135,0.252119,0.252104,0.252089,0.252074,0.252059,0.252044,0.252028,0.252013,0.251998,0.251983,0.251968,0.251953,0.251937,0.251922,0.251907,0.251892,0.251877,0.251862,0.251846,0.251831,0.251816,0.251801,0.251786,0.251771,0.251755,0.25174,0.251725,0.25171,0.251695,0.25168,0.251665,0.251649,0.251634,0.251619,0.251604,0.251589,0.251574,0.251558,0.251543,0.251528,0.251513,0.251498,0.251483,0.251467,0.251452,0.251437,0.251422,0.251407,0.251392,0.251376,0.251361,0.251346,0.251331,0.251316,0.251301,0.251285,0.25127,0.251255,0.25124,0.251225,0.25121,0.251194,0.251179,0.251164,0.251149,0.251134,0.251119,0.251103,0.251088,0.251073,0.251058,0.251043,0.251028,0.251013,0.250997,0.250982,0.250967,0.250952,0.250937,0.250922,0.250906,0.250891,0.250876,0.250861,0.250846,0.250831,0.250815,0.2508,0.250785,0.25077,0.250755,0.25074,0.250724,0.250709,0.250694,0.250679,0.250664,0.250649,0.250633,0.250618,0.250603,0.250588,0.250573,0.250558,0.250542,0.250527,0.250512,0.250497,0.250482,0.250467,0.250452,0.250436,0.250421,0.250406,0.250391,0.250376,0.250361,0.250345,0.25033,0.250315,0.2503,0.250285,0.25027,0.250254,0.250239,0.250224,0.250209,0.250194,0.250179,0.250163,0.250148,0.250133,0.250118,0.250103,0.250088,0.250072,0.250057,0.250042,0.250027,0.250012,0.249997,0.249981,0.249966,0.249951,0.249936,0.249921,0.249906,0.24989,0.249875,0.24986,0.249845,0.24983,0.249815,0.2498,0.249784,0.249769,0.249754,0.249739,0.249724,0.249709,0.249693,0.249678,0.249663,0.249648,0.249633,0.249618,0.249602,0.249587,0.249572,0.249557,0.249542,0.249527,0.249511,0.249496,0.249481,0.249466,0.249451,0.249436,0.24942,0.249405,0.24939,0.249375,0.24936,0.249345,0.249329,0.249314,0.249299,0.249284,0.249269,0.249254,0.249238,0.249223,0.249208,0.249193,0.249178,0.249163,0.249148,0.249132,0.249117,0.249102,0.249087,0.249072,0.249057,0.249041,0.249026,0.249011,0.248996,0.248981,0.248966,0.24895,0.248935,0.24892,0.248905,0.24889,0.248875,0.248859,0.248844,0.248829,0.248814,0.248799,0.248784,0.248768,0.248753,0.248738,0.248723,0.248708,0.248693,0.248677,0.248662,0.248647,0.248632,0.248617,0.248602,0.248586,0.248571,0.248556,0.248541,0.248526,0.248511,0.248496,0.24848,0.248465,0.24845,0.248435,0.24842,0.248405,0.248389,0.248374,0.248359,0.248344,0.248329,0.248314,0.248298,0.248283,0.248268,0.248253,0.248238,0.248223,0.248207,0.248192,0.248177,0.248162,0.248147,0.248132,0.248116,0.248101,0.248086,0.248071,0.248056,0.248041,0.248025,0.24801,0.247995,0.24798,0.247965,0.24795
0.254928,0.254912,0.254897,0.254882,0.254867,0.254852,0.254837,0.254821,0.254806,0.254791,0.254776,0.254761,0.254746,0.25473,0.254715,0.2547,0.254685,0.25467,0.254655,0.254639,0.254624,0.254609,0.254594,0.254579,0.254564,0.254548,0.254533,0.254518,0.254503,0.254488,0.254473,0.254458,0.254442,0.254427,0.254412,0.254397,0.254382,0.254367,0.254351,0.254336,0.254321,0.254306,0.254291,0.254276,0.25426,0.254245,0.25423,0.254215,0.2542,0.254185,0.254169,0.254154,0.254139,0.254124,0.254109,0.254094,0.254078,0.254063,0.254048,0.254033,0.254018,0.254003,0.253987,0.253972,0.253957,0.253942,0.253927,0.253912,0.253897,0.253881,0.253866,0.253851,0.253836,0.253821,0.253806,0.25379,0.253775,0.25376,0.253745,0.25373,0.253715,0.253699,0.253684,0.253669,0.253654,0.253639,0.253624,0.253608,0.253593,0.253578,0.253563,0.253548,0.253533,0.253517,0.253502,0.253487,0.253472,0.253457,0.253442,0.253426,0.253411,0.253396,0.253381,0.253366,0.253351,0.253335,0.25332,0.253305,0.25329,0.253275,0.25326,0.253244,0.253229,0.253214,0.253199,0.253184,0.253169,0.253154,0.253138,0.253123,0.253108,0.253093,0.253078,0.253063,0.253047,0.253032,0.253017,0.253002,0.252987,0.252972,0.252956,0.252941,0.252926,0.252911,0.252896,0.252881,0.252865,0.25285,0.252835,0.25282,0.252805,0.25279,0.252774,0.252759,0.252744,0.252729,0.252714,0.252699,0.252683,0.252668,0.252653,0.252638,0.252623,0.252608,0.252593,0.252577,0.252562,0.252547,0.252532,0.252517,0.252502,0.252486,0.252471,0.252456,0.252441,0.252426,0.252411,0.252395,0.25238,0.252365,0.25235,0.252335,0.25232,0.252304,0.252289,0.252274,0.252259,0.252244,0.252229,0.252213,0.252198,0.252183,0.252168,0.252153,0.252138,0.252122,0.252107,0.252092,0.252077,0.252062,0.252047,0.252031,0.252016,0.252001,0.251986,0.251971,0.251956,0.25194,0.251925,0.25191,0.251895,0.25188,0.251865,0.25185,0.251834,0.251819,0.251804,0.251789,0.251774,0.251759,0.251743,0.251728,0.251713,0.251698,0.251683,0.251668,0.251652,0.251637,0.251622,0.251607,0.251592,0.251577,0.251561,0.251546,0.251531,0.251516,0.251501,0.251486,0.25147,0.251455,0.25144,0.251425,0.25141,0.251395,0.251379,0.251364,0.251349,0.251334,0.251319,0.251304,0.251289,0.251273,0.251258,0.251243,0.251228,0.251213,0.251198,0.251182,0.251167,0.251152,0.251137,0.251122,0.251107,0.251091,0.251076,0.251061,0.251046,0.251031,0.251016,0.251,0.250985,0.25097,0.250955,0.25094,0.250925,0.250909,0.250894,0.250879,0.250864,0.250849,0.250834,0.250818,0.250803,0.250788,0.250773,0.250758,0.250743,0.250727,0.250712,0.250697,0.250682,0.250667,0.250652,0.250636,0.250621,0.250606,0.250591,0.250576,0.250561,0.250546,0.25053,0.250515,0.2505,0.250485,0.25047,0.250455,0.250439,0.250424,0.250409,0.250394,0.250379,0.250364,0.250348,0.250333,0.250318,0.250303,0.250288,0.250273,0.250257,0.250242,0.250227,0.250212,0.250197,0.250182,0.250166,0.250151,0.250136,0.250121,0.250106,0.250091,0.250075,0.25006,0.250045,0.25003,0.250015,0.25,0.249985,0.249969,0.249954,0.249939,0.249924,0.249909,0.249894,0.249878,0.249863,0.249848,0.249833,0.249818,0.249803,0.249787,0.249772,0.249757,0.249742,0.249727,0.249712,0.249696,0.249681,0.249666,0.249651,0.249636,0.249621,0.249605,0.24959,0.249575,0.24956,0.249545,0.24953,0.249514,0.249499,0.249484,0.249469,0.249454,0.249439,0.249423,0.249408,0.249393,0.249378,0.249363,0.249348,0.249333,0.249317,0.249302,0.249287,0.249272,0.249257,0.249242,0.249226,0.249211,0.249196,0.249181,0.249166,0.249151,0.249135,0.24912,0.249105,0.24909,0.249075,0.24906,0.249044,0.249029,0.249014,0.248999,0.248984,0.248969
0.255947,0.255931,0.255916,0.255901,0.255886,0.255871,0.255856,0.25584,0.255825,0.25581,0.255795,0.25578,0.255765,0.255749,0.255734,0.255719,0.255704,0.255689,0.255674,0.255658,0.255643,0.255628,0.255613,0.255598,0.255583,0.255567,0.255552,0.255537,0.255522,0.255507,0.255492,0.255476,0.255461,0.255446,0.255431,0.255416,0.255401,0.255385,0.25537,0.255355,0.25534,0.255325,0.25531,0.255295,0.255279,0.255264,0.255249,0.255234,0.255219,0.255204,0.255188,0.255173,0.255158,0.255143,0.255128,0.255113,0.255097,0.255082,0.255067,0.255052,0.255037,0.255022,0.255006,0.254991,0.254976,0.254961,0.254946,0.254931,0.254915,0.2549,0.254885,0.25487,0.254855,0.25484,0.254824,0.254809,0.254794,0.254779,0.254764,0.254749,0.254734,0.254718,0.254703,0.254688,0.254673,0.254658,0.254643,0.254627,0.254612,0.254597,0.254582,0.254567,0.254552,0.254536,0.254521,0.254506,0.254491,0.254476,0.254461,0.254445,0.25443,0.254415,0.2544,0.254385,0.25437,0.254354,0.254339,0.254324,0.254309,0.254294,0.254279,0.254263,0.254248,0.254233,0.254218,0.254203,0.254188,0.254172,0.254157,0.254142,0.254127,0.254112,0.254097,0.254081,0.254066,0.254051,0.254036,0.254021,0.254006,0.253991,0.253975,0.25396,0.253945,0.25393,0.253915,0.2539,0.253884,0.253869,0.253854,0.253839,0.253824,0.253809,0.253793,0.253778,0.253763,0.253748,0.253733,0.253718,0.253702,0.253687,0.253672,0.253657,0.253642,0.253627,0.253611,0.253596,0.253581,0.253566,0.253551,0.253536,0.25352,0.253505,0.25349,0.253475,0.25346,0.253445,0.25343,0.253414,0.253399,0.253384,0.253369,0.253354,0.253339,0.253323,0.253308,0.253293,0.253278,0.253263,0.253248,0.253232,0.253217,0.253202,0.253187,0.253172,0.253157,0.253141,0.253126,0.253111,0.253096,0.253081,0.253066,0.25305,0.253035,0.25302,0.253005,0.25299,0.252975,0.252959,0.252944,0.252929,0.252914,0.252899,0.252884,0.252868,0.252853,0.252838,0.252823,0.252808,0.252793,0.252777,0.252762,0.252747,0.252732,0.252717,0.252702,0.252687,0.252671,0.252656,0.252641,0.252626,0.252611,0.252596,0.25258,0.252565,0.25255,0.252535,0.25252,0.252505,0.252489,0.252474,0.252459,0.252444,0.252429,0.252414,0.252398,0.252383,0.252368,0.252353,0.252338,0.252323,0.252307,0.252292,0.252277,0.252262,0.252247,0.252232,0.252216,0.252201,0.252186,0.252171,0.252156,0.252141,0.252126,0.25211,0.252095,0.25208,0.252065,0.25205,0.252035,0.252019,0.252004,0.251989,0.251974,0.251959,0.251944,0.251928,0.251913,0.251898,0.251883,0.251868,0.251853,0.251837,0.251822,0.251807,0.251792,0.251777,0.251762,0.251746,0.251731,0.251716,0.251701,0.251686,0.251671,0.251655,0.25164,0.251625,0.25161,0.251595,0.25158,0.251564,0.251549,0.251534,0.251519,0.251504,0.251489,0.251473,0.251458,0.251443,0.251428,0.251413,0.251398,0.251383,0.251367,0.251352,0.251337,0.251322,0.251307,0.251292,0.251276,0.251261,0.251246,0.251231,0.251216,0.251201,0.251185,0.25117,0.251155,0.25114,0.251125,0.25111,0.251094,0.251079,0.251064,0.251049,0.251034,0.251019,0.251003,0.250988,0.250973,0.250958,0.250943,0.250928,0.250912,0.250897,0.250882,0.250867,0.250852,0.250837,0.250822,0.250806,0.250791,0.250776,0.250761,0.250746,0.250731,0.250715,0.2507,0.250685,0.25067,0.250655,0.25064,0.250624,0.250609,0.250594,0.250579,0.250564,0.250549,0.250533,0.250518,0.250503,0.250488,0.250473,0.250458,0.250442,0.250427,0.250412,0.250397,0.250382,0.250367,0.250351,0.250336,0.250321,0.250306,0.250291,0.250276,0.25026,0.250245,0.25023,0.250215,0.2502,0.250185,0.250169,0.250154,0.250139,0.250124,0.250109,0.250094,0.250079,0.250063,0.250048,0.250033,0.250018,0.250003,0.249988
0.256965,0.25695,0.256935,0.25692,0.256905,0.25689,0.256875,0.256859,0.256844,0.256829,0.256814,0.256799,0.256784,0.256768,0.256753,0.256738,0.256723,0.256708,0.256693,0.256677,0.256662,0.256647,0.256632,0.256617,0.256602,0.256586,0.256571,0.256556,0.256541,0.256526,0.256511,0.256495,0.25648,0.256465,0.25645,0.256435,0.25642,0.256404,0.256389,0.256374,0.256359,0.256344,0.256329,0.256313,0.256298,0.256283,0.256268,0.256253,0.256238,0.256222,0.256207,0.256192,0.256177,0.256162,0.256147,0.256132,0.256116,0.256101,0.256086,0.256071,0.256056,0.256041,0.256025,0.25601,0.255995,0.25598,0.255965,0.25595,0.255934,0.255919,0.255904,0.255889,0.255874,0.255859,0.255843,0.255828,0.255813,0.255798,0.255783,0.255768,0.255752,0.255737,0.255722,0.255707,0.255692,0.255677,0.255661,0.255646,0.255631,0.255616,0.255601,0.255586,0.255571,0.255555,0.25554,0.255525,0.25551,0.255495,0.25548,0.255464,0.255449,0.255434,0.255419,0.255404,0.255389,0.255373,0.255358,0.255343,0.255328,0.255313,0.255298,0.255282,0.255267,0.255252,0.255237,0.255222,0.255207,0.255191,0.255176,0.255161,0.255146,0.255131,0.255116,0.2551,0.255085,0.25507,0.255055,0.25504,0.255025,0.255009,0.254994,0.254979,0.254964,0.254949,0.254934,0.254918,0.254903,0.254888,0.254873,0.254858,0.254843,0.254828,0.254812,0.254797,0.254782,0.254767,0.254752,0.254737,0.254721,0.254706,0.254691,0.254676,0.254661,0.254646,0.25463,0.254615,0.2546,0.254585,0.25457,0.254555,0.254539,0.254524,0.254509,0.254494,0.254479,0.254464,0.254448,0.254433,0.254418,0.254403,0.254388,0.254373,0.254357,0.254342,0.254327,0.254312,0.254297,0.254282,0.254267,0.254251,0.254236,0.254221,0.254206,0.254191,0.254176,0.25416,0.254145,0.25413,0.254115,0.2541,0.254085,0.254069,0.254054,0.254039,0.254024,0.254009,0.253994,0.253978,0.253963,0.253948,0.253933,0.253918,0.253903,0.253887,0.253872,0.253857,0.253842,0.253827,0.253812,0.253796,0.253781,0.253766,0.253751,0.253736,0.253721,0.253705,0.25369,0.253675,0.25366,0.253645,0.25363,0.253614,0.253599,0.253584,0.253569,0.253554,0.253539,0.253524,0.253508,0.253493,0.253478,0.253463,0.253448,0.253433,0.253417,0.253402,0.253387,0.253372,0.253357,0.253342,0.253326,0.253311,0.253296,0.253281,0.253266,0.253251,0.253235,0.25322,0.253205,0.25319,0.253175,0.25316,0.253144,0.253129,0.253114,0.253099,0.253084,0.253069,0.253053,0.253038,0.253023,0.253008,0.252993,0.252978,0.252962,0.252947,0.252932,0.252917,0.252902,0.252887,0.252872,0.252856,0.252841,0.252826,0.252811,0.252796,0.252781,0.252765,0.25275,0.252735,0.25272,0.252705,0.25269,0.252674,0.252659,0.252644,0.252629,0.252614,0.252599,0.252583,0.252568,0.252553,0.252538,0.252523,0.252508,0.252492,0.252477,0.252462,0.252447,0.252432,0.252417,0.252401,0.252386,0.252371,0.252356,0.252341,0.252326,0.25231,0.252295,0.25228,0.252265,0.25225,0.252235,0.25222,0.252204,0.252189,0.252174,0.252159,0.252144,0.252129,0.252113,0.252098,0.252083,0.252068,0.252053,0.252038,0.252022,0.252007,0.251992,0.251977,0.251962,0.251947,0.251931,0.251916,0.251901,0.251886,0.251871,0.251856,0.25184,0.251825,0.25181,0.251795,0.25178,0.251765,0.251749,0.251734,0.251719,0.251704,0.251689,0.251674,0.251658,0.251643,0.251628,0.251613,0.251598,0.251583,0.251568,0.251552,0.251537,0.251522,0.251507,0.251492,0.251477,0.251461,0.251446,0.251431,0.251416,0.251401,0.251386,0.25137,0.251355,0.25134,0.251325,0.25131,0.251295,0.251279,0.251264,0.251249,0.251234,0.251219,0.251204,0.251188,0.251173,0.251158,0.251143,0.251128,0.251113,0.251097,0.251082,0.251067,0.251052,0.251037,0.251022,0.251007
0.257984,0.257969,0.257954,0.257939,0.257924,0.257909,0.257893,0.257878,0.257863,0.257848,0.257833,0.257818,0.257802,0.257787,0.257772,0.257757,0.257742,0.257727,0.257711,0.257696,0.257681,0.257666,0.257651,0.257636,0.257621,0.257605,0.25759,0.257575,0.25756,0.257545,0.25753,0.257514,0.257499,0.257484,0.257469,0.257454,0.257439,0.257423,0.257408,0.257393,0.257378,0.257363,0.257348,0.257332,0.257317,0.257302,0.257287,0.257272,0.257257,0.257241,0.257226,0.257211,0.257196,0.257181,0.257166,0.25715,0.257135,0.25712,0.257105,0.25709,0.257075,0.257059,0.257044,0.257029,0.257014,0.256999,0.256984,0.256969,0.256953,0.256938,0.256923,0.256908,0.256893,0.256878,0.256862,0.256847,0.256832,0.256817,0.256802,0.256787,0.256771,0.256756,0.256741,0.256726,0.256711,0.256696,0.25668,0.256665,0.25665,0.256635,0.25662,0.256605,0.256589,0.256574,0.256559,0.256544,0.256529,0.256514,0.256498,0.256483,0.256468,0.256453,0.256438,0.256423,0.256407,0.256392,0.256377,0.256362,0.256347,0.256332,0.256317,0.256301,0.256286,0.256271,0.256256,0.256241,0.256226,0.25621,0.256195,0.25618,0.256165,0.25615,0.256135,0.256119,0.256104,0.256089,0.256074,0.256059,0.256044,0.256028,0.256013,0.255998,0.255983,0.255968,0.255953,0.255937,0.255922,0.255907,0.255892,0.255877,0.255862,0.255846,0.255831,0.255816,0.255801,0.255786,0.255771,0.255755,0.25574,0.255725,0.25571,0.255695,0.25568,0.255665,0.255649,0.255634,0.255619,0.255604,0.255589,0.255574,0.255558,0.255543,0.255528,0.255513,0.255498,0.255483,0.255467,0.255452,0.255437,0.255422,0.255407,0.255392,0.255376,0.255361,0.255346,0.255331,0.255316,0.255301,0.255285,0.25527,0.255255,0.25524,0.255225,0.25521,0.255194,0.255179,0.255164,0.255149,0.255134,0.255119,0.255103,0.255088,0.255073,0.255058,0.255043,0.255028,0.255013,0.254997,0.254982,0.254967,0.254952,0.254937,0.254922,0.254906,0.254891,0.254876,0.254861,0.254846,0.254831,0.254815,0.2548,0.254785,0.25477,0.254755,0.25474,0.254724,0.254709,0.254694,0.254679,0.254664,0.254649,0.254633,0.254618,0.254603,0.254588,0.254573,0.254558,0.254542,0.254527,0.254512,0.254497,0.254482,0.254467,0.254452,0.254436,0.254421,0.254406,0.254391,0.254376,0.254361,0.254345,0.25433,0.254315,0.2543,0.254285,0.25427,0.254254,0.254239,0.254224,0.254209,0.254194,0.254179,0.254163,0.254148,0.254133,0.254118,0.254103,0.254088,0.254072,0.254057,0.254042,0.254027,0.254012,0.253997,0.253981,0.253966,0.253951,0.253936,0.253921,0.253906,0.25389,0.253875,0.25386,0.253845,0.25383,0.253815,0.253799,0.253784,0.253769,0.253754,0.253739,0.253724,0.253709,0.253693,0.253678,0.253663,0.253648,0.253633,0.253618,0.253602,0.253587,0.253572,0.253557,0.253542,0.253527,0.253511,0.253496,0.253481,0.253466,0.253451,0.253436,0.25342,0.253405,0.25339,0.253375,0.25336,0.253345,0.253329,0.253314,0.253299,0.253284,0.253269,0.253254,0.253238,0.253223,0.253208,0.253193,0.253178,0.253163,0.253148,0.253132,0.253117,0.253102,0.253087,0.253072,0.253057,0.253041,0.253026,0.253011,0.252996,0.252981,0.252966,0.25295,0.252935,0.25292,0.252905,0.25289,0.252875,0.252859,0.252844,0.252829,0.252814,0.252799,0.252784,0.252768,0.252753,0.252738,0.252723,0.252708,0.252693,0.252677,0.252662,0.252647,0.252632,0.252617,0.252602,0.252586,0.252571,0.252556,0.252541,0.252526,0.252511,0.252495,0.25248,0.252465,0.25245,0.252435,0.25242,0.252405,0.252389,0.252374,0.252359,0.252344,0.252329,0.252314,0.252298,0.252283,0.252268,0.252253,0.252238,0.252223,0.252207,0.252192,0.252177,0.252162,0.252147,0.252132,0.252116,0.252101,0.252086,0.252071,0.252056,0.252041,0.252025
0.259003,0.258988,0.258973,0.258958,0.258943,0.258928,0.258912,0.258897,0.258882,0.258867,0.258852,0.258837,0.258821,0.258806,0.258791,0.258776,0.258761,0.258746,0.25873,0.258715,0.2587,0.258685,0.25867,0.258655,0.258639,0.258624,0.258609,0.258594,0.258579,0.258564,0.258548,0.258533,0.258518,0.258503,0.258488,0.258473,0.258458,0.258442,0.258427,0.258412,0.258397,0.258382,0.258367,0.258351,0.258336,0.258321,0.258306,0.258291,0.258276,0.25826,0.258245,0.25823,0.258215,0.2582,0.258185,0.258169,0.258154,0.258139,0.258124,0.258109,0.258094,0.258078,0.258063,0.258048,0.258033,0.258018,0.258003,0.257987,0.257972,0.257957,0.257942,0.257927,0.257912,0.257897,0.257881,0.257866,0.257851,0.257836,0.257821,0.257806,0.25779,0.257775,0.25776,0.257745,0.25773,0.257715,0.257699,0.257684,0.257669,0.257654,0.257639,0.257624,0.257608,0.257593,0.257578,0.257563,0.257548,0.257533,0.257517,0.257502,0.257487,0.257472,0.257457,0.257442,0.257426,0.257411,0.257396,0.257381,0.257366,0.257351,0.257335,0.25732,0.257305,0.25729,0.257275,0.25726,0.257244,0.257229,0.257214,0.257199,0.257184,0.257169,0.257154,0.257138,0.257123,0.257108,0.257093,0.257078,0.257063,0.257047,0.257032,0.257017,0.257002,0.256987,0.256972,0.256956,0.256941,0.256926,0.256911,0.256896,0.256881,0.256865,0.25685,0.256835,0.25682,0.256805,0.25679,0.256774,0.256759,0.256744,0.256729,0.256714,0.256699,0.256683,0.256668,0.256653,0.256638,0.256623,0.256608,0.256593,0.256577,0.256562,0.256547,0.256532,0.256517,0.256502,0.256486,0.256471,0.256456,0.256441,0.256426,0.256411,0.256395,0.25638,0.256365,0.25635,0.256335,0.25632,0.256304,0.256289,0.256274,0.256259,0.256244,0.256229,0.256213,0.256198,0.256183,0.256168,0.256153,0.256138,0.256122,0.256107,0.256092,0.256077,0.256062,0.256047,0.256031,0.256016,0.256001,0.255986,0.255971,0.255956,0.25594,0.255925,0.25591,0.255895,0.25588,0.255865,0.25585,0.255834,0.255819,0.255804,0.255789,0.255774,0.255759,0.255743,0.255728,0.255713,0.255698,0.255683,0.255668,0.255652,0.255637,0.255622,0.255607,0.255592,0.255577,0.255561,0.255546,0.255531,0.255516,0.255501,0.255486,0.25547,0.255455,0.25544,0.255425,0.25541,0.255395,0.255379,0.255364,0.255349,0.255334,0.255319,0.255304,0.255289,0.255273,0.255258,0.255243,0.255228,0.255213,0.255198,0.255182,0.255167,0.255152,0.255137,0.255122,0.255107,0.255091,0.255076,0.255061,0.255046,0.255031,0.255016,0.255,0.254985,0.25497,0.254955,0.25494,0.254925,0.254909,0.254894,0.254879,0.254864,0.254849,0.254834,0.254818,0.254803,0.254788,0.254773,0.254758,0.254743,0.254727,0.254712,0.254697,0.254682,0.254667,0.254652,0.254636,0.254621,0.254606,0.254591,0.254576,0.254561,0.254546,0.25453,0.254515,0.2545,0.254485,0.25447,0.254455,0.254439,0.254424,0.254409,0.254394,0.254379,0.254364,0.254348,0.254333,0.254318,0.254303,0.254288,0.254273,0.254257,0.254242,0.254227,0.254212,0.254197,0.254182,0.254166,0.254151,0.254136,0.254121,0.254106,0.254091,0.254075,0.25406,0.254045,0.25403,0.254015,0.254,0.253985,0.253969,0.253954,0.253939,0.253924,0.253909,0.253894,0.253878,0.253863,0.253848,0.253833,0.253818,0.253803,0.253787,0.253772,0.253757,0.253742,0.253727,0.253712,0.253696,0.253681,0.253666,0.253651,0.253636,0.253621,0.253605,0.25359,0.253575,0.25356,0.253545,0.25353,0.253514,0.253499,0.253484,0.253469,0.253454,0.253439,0.253423,0.253408,0.253393,0.253378,0.253363,0.253348,0.253332,0.253317,0.253302,0.253287,0.253272,0.253257,0.253242,0.253226,0.253211,0.253196,0.253181,0.253166,0.253151,0.253135,0.25312,0.253105,0.25309,0.253075,0.25306,0.253044
0.260022,0.260007,0.259992,0.259977,0.259962,0.259947,0.259931,0.259916,0.259901,0.259886,0.259871,0.259856,0.25984,0.259825,0.25981,0.259795,0.25978,0.259765,0.259749,0.259734,0.259719,0.259704,0.259689,0.259674,0.259658,0.259643,0.259628,0.259613,0.259598,0.259583,0.259567,0.259552,0.259537,0.259522,0.259507,0.259492,0.259476,0.259461,0.259446,0.259431,0.259416,0.259401,0.259385,0.25937,0.259355,0.25934,0.259325,0.25931,0.259295,0.259279,0.259264,0.259249,0.259234,0.259219,0.259204,0.259188,0.259173,0.259158,0.259143,0.259128,0.259113,0.259097,0.259082,0.259067,0.259052,0.259037,0.259022,0.259006,0.258991,0.258976,0.258961,0.258946,0.258931,0.258915,0.2589,0.258885,0.25887,0.258855,0.25884,0.258824,0.258809,0.258794,0.258779,0.258764,0.258749,0.258734,0.258718,0.258703,0.258688,0.258673,0.258658,0.258643,0.258627,0.258612,0.258597,0.258582,0.258567,0.258552,0.258536,0.258521,0.258506,0.258491,0.258476,0.258461,0.258445,0.25843,0.258415,0.2584,0.258385,0.25837,0.258354,0.258339,0.258324,0.258309,0.258294,0.258279,0.258263,0.258248,0.258233,0.258218,0.258203,0.258188,0.258172,0.258157,0.258142,0.258127,0.258112,0.258097,0.258081,0.258066,0.258051,0.258036,0.258021,0.258006,0.257991,0.257975,0.25796,0.257945,0.25793,0.257915,0.2579,0.257884,0.257869,0.257854,0.257839,0.257824,0.257809,0.257793,0.257778,0.257763,0.257748,0.257733,0.257718,0.257702,0.257687,0.257672,0.257657,0.257642,0.257627,0.257611,0.257596,0.257581,0.257566,0.257551,0.257536,0.25752,0.257505,0.25749,0.257475,0.25746,0.257445,0.25743,0.257414,0.257399,0.257384,0.257369,0.257354,0.257339,0.257323,0.257308,0.257293,0.257278,0.257263,0.257248,0.257232,0.257217,0.257202,0.257187,0.257172,0.257157,0.257141,0.257126,0.257111,0.257096,0.257081,0.257066,0.25705,0.257035,0.25702,0.257005,0.25699,0.256975,0.256959,0.256944,0.256929,0.256914,0.256899,0.256884,0.256868,0.256853,0.256838,0.256823,0.256808,0.256793,0.256777,0.256762,0.256747,0.256732,0.256717,0.256702,0.256687,0.256671,0.256656,0.256641,0.256626,0.256611,0.256596,0.25658,0.256565,0.25655,0.256535,0.25652,0.256505,0.256489,0.256474,0.256459,0.256444,0.256429,0.256414,0.256398,0.256383,0.256368,0.256353,0.256338,0.256323,0.256307,0.256292,0.256277,0.256262,0.256247,0.256232,0.256216,0.256201,0.256186,0.256171,0.256156,0.256141,0.256126,0.25611,0.256095,0.25608,0.256065,0.25605,0.256035,0.256019,0.256004,0.255989,0.255974,0.255959,0.255944,0.255928,0.255913,0.255898,0.255883,0.255868,0.255853,0.255837,0.255822,0.255807,0.255792,0.255777,0.255762,0.255746,0.255731,0.255716,0.255701,0.255686,0.255671,0.255655,0.25564,0.255625,0.25561,0.255595,0.25558,0.255564,0.255549,0.255534,0.255519,0.255504,0.255489,0.255473,0.255458,0.255443,0.255428,0.255413,0.255398,0.255383,0.255367,0.255352,0.255337,0.255322,0.255307,0.255292,0.255276,0.255261,0.255246,0.255231,0.255216,0.255201,0.255185,0.25517,0.255155,0.25514,0.255125,0.25511,0.255094,0.255079,0.255064,0.255049,0.255034,0.255019,0.255003,0.254988,0.254973,0.254958,0.254943,0.254928,0.254912,0.254897,0.254882,0.254867,0.254852,0.254837,0.254822,0.254806,0.254791,0.254776,0.254761,0.254746,0.254731,0.254715,0.2547,0.254685,0.25467,0.254655,0.25464,0.254624,0.254609,0.254594,0.254579,0.254564,0.254549,0.254533,0.254518,0.254503,0.254488,0.254473,0.254458,0.254442,0.254427,0.254412,0.254397,0.254382,0.254367,0.254351,0.254336,0.254321,0.254306,0.254291,0.254276,0.25426,0.254245,0.25423,0.254215,0.2542,0.254185,0.254169,0.254154,0.254139,0.254124,0.254109,0.254094,0.254079,0.254063
0.261041,0.261026,0.261011,0.260996,0.260981,0.260965,0.26095,0.260935,0.26092,0.260905,0.26089,0.260875,0.260859,0.260844,0.260829,0.260814,0.260799,0.260784,0.260768,0.260753,0.260738,0.260723,0.260708,0.260693,0.260677,0.260662,0.260647,0.260632,0.260617,0.260602,0.260586,0.260571,0.260556,0.260541,0.260526,0.260511,0.260495,0.26048,0.260465,0.26045,0.260435,0.26042,0.260404,0.260389,0.260374,0.260359,0.260344,0.260329,0.260313,0.260298,0.260283,0.260268,0.260253,0.260238,0.260222,0.260207,0.260192,0.260177,0.260162,0.260147,0.260132,0.260116,0.260101,0.260086,0.260071,0.260056,0.260041,0.260025,0.26001,0.259995,0.25998,0.259965,0.25995,0.259934,0.259919,0.259904,0.259889,0.259874,0.259859,0.259843,0.259828,0.259813,0.259798,0.259783,0.259768,0.259752,0.259737,0.259722,0.259707,0.259692,0.259677,0.259661,0.259646,0.259631,0.259616,0.259601,0.259586,0.259571,0.259555,0.25954,0.259525,0.25951,0.259495,0.25948,0.259464,0.259449,0.259434,0.259419,0.259404,0.259389,0.259373,0.259358,0.259343,0.259328,0.259313,0.259298,0.259282,0.259267,0.259252,0.259237,0.259222,0.259207,0.259191,0.259176,0.259161,0.259146,0.259131,0.259116,0.2591,0.259085,0.25907,0.259055,0.25904,0.259025,0.259009,0.258994,0.258979,0.258964,0.258949,0.258934,0.258918,0.258903,0.258888,0.258873,0.258858,0.258843,0.258828,0.258812,0.258797,0.258782,0.258767,0.258752,0.258737,0.258721,0.258706,0.258691,0.258676,0.258661,0.258646,0.25863,0.258615,0.2586,0.258585,0.25857,0.258555,0.258539,0.258524,0.258509,0.258494,0.258479,0.258464,0.258448,0.258433,0.258418,0.258403,0.258388,0.258373,0.258357,0.258342,0.258327,0.258312,0.258297,0.258282,0.258267,0.258251,0.258236,0.258221,0.258206,0.258191,0.258176,0.25816,0.258145,0.25813,0.258115,0.2581,0.258085,0.258069,0.258054,0.258039,0.258024,0.258009,0.257994,0.257978,0.257963,0.257948,0.257933,0.257918,0.257903,0.257887,0.257872,0.257857,0.257842,0.257827,0.257812,0.257796,0.257781,0.257766,0.257751,0.257736,0.257721,0.257705,0.25769,0.257675,0.25766,0.257645,0.25763,0.257614,0.257599,0.257584,0.257569,0.257554,0.257539,0.257524,0.257508,0.257493,0.257478,0.257463,0.257448,0.257433,0.257417,0.257402,0.257387,0.257372,0.257357,0.257342,0.257326,0.257311,0.257296,0.257281,0.257266,0.257251,0.257235,0.25722,0.257205,0.25719,0.257175,0.25716,0.257144,0.257129,0.257114,0.257099,0.257084,0.257069,0.257053,0.257038,0.257023,0.257008,0.256993,0.256978,0.256963,0.256947,0.256932,0.256917,0.256902,0.256887,0.256872,0.256856,0.256841,0.256826,0.256811,0.256796,0.256781,0.256765,0.25675,0.256735,0.25672,0.256705,0.25669,0.256674,0.256659,0.256644,0.256629,0.256614,0.256599,0.256583,0.256568,0.256553,0.256538,0.256523,0.256508,0.256492,0.256477,0.256462,0.256447,0.256432,0.256417,0.256401,0.256386,0.256371,0.256356,0.256341,0.256326,0.25631,0.256295,0.25628,0.256265,0.25625,0.256235,0.25622,0.256204,0.256189,0.256174,0.256159,0.256144,0.256129,0.256113,0.256098,0.256083,0.256068,0.256053,0.256038,0.256022,0.256007,0.255992,0.255977,0.255962,0.255947,0.255931,0.255916,0.255901,0.255886,0.255871,0.255856,0.25584,0.255825,0.25581,0.255795,0.25578,0.255765,0.255749,0.255734,0.255719,0.255704,0.255689,0.255674,0.255659,0.255643,0.255628,0.255613,0.255598,0.255583,0.255568,0.255552,0.255537,0.255522,0.255507,0.255492,0.255477,0.255461,0.255446,0.255431,0.255416,0.255401,0.255386,0.25537,0.255355,0.25534,0.255325,0.25531,0.255295,0.255279,0.255264,0.255249,0.255234,0.255219,0.255204,0.255188,0.255173,0.255158,0.255143,0.255128,0.255113,0.255097,0.255082
0.26206,0.262045,0.26203,0.262015,0.262,0.261984,0.261969,0.261954,0.261939,0.261924,0.261909,0.261893,0.261878,0.261863,0.261848,0.261833,0.261818,0.261802,0.261787,0.261772,0.261757,0.261742,0.261727,0.261712,0.261696,0.261681,0.261666,0.261651,0.261636,0.261621,0.261605,0.26159,0.261575,0.26156,0.261545,0.26153,0.261514,0.261499,0.261484,0.261469,0.261454,0.261439,0.261423,0.261408,0.261393,0.261378,0.261363,0.261348,0.261332,0.261317,0.261302,0.261287,0.261272,0.261257,0.261241,0.261226,0.261211,0.261196,0.261181,0.261166,0.26115,0.261135,0.26112,0.261105,0.26109,0.261075,0.261059,0.261044,0.261029,0.261014,0.260999,0.260984,0.260969,0.260953,0.260938,0.260923,0.260908,0.260893,0.260878,0.260862,0.260847,0.260832,0.260817,0.260802,0.260787,0.260771,0.260756,0.260741,0.260726,0.260711,0.260696,0.26068,0.260665,0.26065,0.260635,0.26062,0.260605,0.260589,0.260574,0.260559,0.260544,0.260529,0.260514,0.260498,0.260483,0.260468,0.260453,0.260438,0.260423,0.260408,0.260392,0.260377,0.260362,0.260347,0.260332,0.260317,0.260301,0.260286,0.260271,0.260256,0.260241,0.260226,0.26021,0.260195,0.26018,0.260165,0.26015,0.260135,0.260119,0.260104,0.260089,0.260074,0.260059,0.260044,0.260028,0.260013,0.259998,0.259983,0.259968,0.259953,0.259937,0.259922,0.259907,0.259892,0.259877,0.259862,0.259846,0.259831,0.259816,0.259801,0.259786,0.259771,0.259755,0.25974,0.259725,0.25971,0.259695,0.25968,0.259665,0.259649,0.259634,0.259619,0.259604,0.259589,0.259574,0.259558,0.259543,0.259528,0.259513,0.259498,0.259483,0.259467,0.259452,0.259437,0.259422,0.259407,0.259392,0.259376,0.259361,0.259346,0.259331,0.259316,0.259301,0.259285,0.25927,0.259255,0.25924,0.259225,0.25921,0.259194,0.259179,0.259164,0.259149,0.259134,0.259119,0.259104,0.259088,0.259073,0.259058,0.259043,0.259028,0.259013,0.258997,0.258982,0.258967,0.258952,0.258937,0.258922,0.258906,0.258891,0.258876,0.258861,0.258846,0.258831,0.258815,0.2588,0.258785,0.25877,0.258755,0.25874,0.258724,0.258709,0.258694,0.258679,0.258664,0.258649,0.258633,0.258618,0.258603,0.258588,0.258573,0.258558,0.258542,0.258527,0.258512,0.258497,0.258482,0.258467,0.258451,0.258436,0.258421,0.258406,0.258391,0.258376,0.258361,0.258345,0.25833,0.258315,0.2583,0.258285,0.25827,0.258254,0.258239,0.258224,0.258209,0.258194,0.258179,0.258163,0.258148,0.258133,0.258118,0.258103,0.258088,0.258072,0.258057,0.258042,0.258027,0.258012,0.257997,0.257981,0.257966,0.257951,0.257936,0.257921,0.257906,0.25789,0.257875,0.25786,0.257845,0.25783,0.257815,0.2578,0.257784,0.257769,0.257754,0.257739,0.257724,0.257709,0.257693,0.257678,0.257663,0.257648,0.257633,0.257618,0.257602,0.257587,0.257572,0.257557,0.257542,0.257527,0.257511,0.257496,0.257481,0.257466,0.257451,0.257436,0.25742,0.257405,0.25739,0.257375,0.25736,0.257345,0.257329,0.257314,0.257299,0.257284,0.257269,0.257254,0.257238,0.257223,0.257208,0.257193,0.257178,0.257163,0.257148,0.257132,0.257117,0.257102,0.257087,0.257072,0.257057,0.257041,0.257026,0.257011,0.256996,0.256981,0.256966,0.25695,0.256935,0.25692,0.256905,0.25689,0.256875,0.256859,0.256844,0.256829,0.256814,0.256799,0.256784,0.256768,0.256753,0.256738,0.256723,0.256708,0.256693,0.256677,0.256662,0.256647,0.256632,0.256617,0.256602,0.256586,0.256571,0.256556,0.256541,0.256526,0.256511,0.256496,0.25648,0.256465,0.25645,0.256435,0.25642,0.256405,0.256389,0.256374,0.256359,0.256344,0.256329,0.256314,0.256298,0.256283,0.256268,0.256253,0.256238,0.256223,0.256207,0.256192,0.256177,0.256162,0.256147,0.256132,0.256116,0.256101
0.263079,0.263064,0.263049,0.263034,0.263019,0.263003,0.262988,0.262973,0.262958,0.262943,0.262928,0.262912,0.262897,0.262882,0.262867,0.262852,0.262837,0.262821,0.262806,0.262791,0.262776,0.262761,0.262746,0.26273,0.262715,0.2627,0.262685,0.26267,0.262655,0.262639,0.262624,0.262609,0.262594,0.262579,0.262564,0.262549,0.262533,0.262518,0.262503,0.262488,0.262473,0.262458,0.262442,0.262427,0.262412,0.262397,0.262382,0.262367,0.262351,0.262336,0.262321,0.262306,0.262291,0.262276,0.26226,0.262245,0.26223,0.262215,0.2622,0.262185,0.262169,0.262154,0.262139,0.262124,0.262109,0.262094,0.262078,0.262063,0.262048,0.262033,0.262018,0.262003,0.261987,0.261972,0.261957,0.261942,0.261927,0.261912,0.261896,0.261881,0.261866,0.261851,0.261836,0.261821,0.261806,0.26179,0.261775,0.26176,0.261745,0.26173,0.261715,0.261699,0.261684,0.261669,0.261654,0.261639,0.261624,0.261608,0.261593,0.261578,0.261563,0.261548,0.261533,0.261517,0.261502,0.261487,0.261472,0.261457,0.261442,0.261426,0.261411,0.261396,0.261381,0.261366,0.261351,0.261335,0.26132,0.261305,0.26129,0.261275,0.26126,0.261245,0.261229,0.261214,0.261199,0.261184,0.261169,0.261154,0.261138,0.261123,0.261108,0.261093,0.261078,0.261063,0.261047,0.261032,0.261017,0.261002,0.260987,0.260972,0.260956,0.260941,0.260926,0.260911,0.260896,0.260881,0.260865,0.26085,0.260835,0.26082,0.260805,0.26079,0.260774,0.260759,0.260744,0.260729,0.260714,0.260699,0.260683,0.260668,0.260653,0.260638,0.260623,0.260608,0.260593,0.260577,0.260562,0.260547,0.260532,0.260517,0.260502,0.260486,0.260471,0.260456,0.260441,0.260426,0.260411,0.260395,0.26038,0.260365,0.26035,0.260335,0.26032,0.260304,0.260289,0.260274,0.260259,0.260244,0.260229,0.260213,0.260198,0.260183,0.260168,0.260153,0.260138,0.260122,0.260107,0.260092,0.260077,0.260062,0.260047,0.260031,0.260016,0.260001,0.259986,0.259971,0.259956,0.259941,0.259925,0.25991,0.259895,0.25988,0.259865,0.25985,0.259834,0.259819,0.259804,0.259789,0.259774,0.259759,0.259743,0.259728,0.259713,0.259698,0.259683,0.259668,0.259652,0.259637,0.259622,0.259607,0.259592,0.259577,0.259561,0.259546,0.259531,0.259516,0.259501,0.259486,0.25947,0.259455,0.25944,0.259425,0.25941,0.259395,0.259379,0.259364,0.259349,0.259334,0.259319,0.259304,0.259289,0.259273,0.259258,0.259243,0.259228,0.259213,0.259198,0.259182,0.259167,0.259152,0.259137,0.259122,0.259107,0.259091,0.259076,0.259061,0.259046,0.259031,0.259016,0.259,0.258985,0.25897,0.258955,0.25894,0.258925,0.258909,0.258894,0.258879,0.258864,0.258849,0.258834,0.258818,0.258803,0.258788,0.258773,0.258758,0.258743,0.258727,0.258712,0.258697,0.258682,0.258667,0.258652,0.258637,0.258621,0.258606,0.258591,0.258576,0.258561,0.258546,0.25853,0.258515,0.2585,0.258485,0.25847,0.258455,0.258439,0.258424,0.258409,0.258394,0.258379,0.258364,0.258348,0.258333,0.258318,0.258303,0.258288,0.258273,0.258257,0.258242,0.258227,0.258212,0.258197,0.258182,0.258166,0.258151,0.258136,0.258121,0.258106,0.258091,0.258075,0.25806,0.258045,0.25803,0.258015,0.258,0.257985,0.257969,0.257954,0.257939,0.257924,0.257909,0.257894,0.257878,0.257863,0.257848,0.257833,0.257818,0.257803,0.257787,0.257772,0.257757,0.257742,0.257727,0.257712,0.257696,0.257681,0.257666,0.257651,0.257636,0.257621,0.257605,0.25759,0.257575,0.25756,0.257545,0.25753,0.257514,0.257499,0.257484,0.257469,0.257454,0.257439,0.257423,0.257408,0.257393,0.257378,0.257363,0.257348,0.257333,0.257317,0.257302,0.257287,0.257272,0.257257,0.257242,0.257226,0.257211,0.257196,0.257181,0.257166,0.257151,0.257135,0.25712
0.264098,0.264083,0.264068,0.264053,0.264038,0.264022,0.264007,0.263992,0.263977,0.263962,0.263947,0.263931,0.263916,0.263901,0.263886,0.263871,0.263856,0.26384,0.263825,0.26381,0.263795,0.26378,0.263765,0.263749,0.263734,0.263719,0.263704,0.263689,0.263674,0.263658,0.263643,0.263628,0.263613,0.263598,0.263583,0.263567,0.263552,0.263537,0.263522,0.263507,0.263492,0.263476,0.263461,0.263446,0.263431,0.263416,0.263401,0.263386,0.26337,0.263355,0.26334,0.263325,0.26331,0.263295,0.263279,0.263264,0.263249,0.263234,0.263219,0.263204,0.263188,0.263173,0.263158,0.263143,0.263128,0.263113,0.263097,0.263082,0.263067,0.263052,0.263037,0.263022,0.263006,0.262991,0.262976,0.262961,0.262946,0.262931,0.262915,0.2629,0.262885,0.26287,0.262855,0.26284,0.262824,0.262809,0.262794,0.262779,0.262764,0.262749,0.262734,0.262718,0.262703,0.262688,0.262673,0.262658,0.262643,0.262627,0.262612,0.262597,0.262582,0.262567,0.262552,0.262536,0.262521,0.262506,0.262491,0.262476,0.262461,0.262445,0.26243,0.262415,0.2624,0.262385,0.26237,0.262354,0.262339,0.262324,0.262309,0.262294,0.262279,0.262263,0.262248,0.262233,0.262218,0.262203,0.262188,0.262172,0.262157,0.262142,0.262127,0.262112,0.262097,0.262082,0.262066,0.262051,0.262036,0.262021,0.262006,0.261991,0.261975,0.26196,0.261945,0.26193,0.261915,0.2619,0.261884,0.261869,0.261854,0.261839,0.261824,0.261809,0.261793,0.261778,0.261763,0.261748,0.261733,0.261718,0.261702,0.261687,0.261672,0.261657,0.261642,0.261627,0.261611,0.261596,0.261581,0.261566,0.261551,0.261536,0.26152,0.261505,0.26149,0.261475,0.26146,0.261445,0.26143,0.261414,0.261399,0.261384,0.261369,0.261354,0.261339,0.261323,0.261308,0.261293,0.261278,0.261263,0.261248,0.261232,0.261217,0.261202,0.261187,0.261172,0.261157,0.261141,0.261126,0.261111,0.261096,0.261081,0.261066,0.26105,0.261035,0.26102,0.261005,0.26099,0.260975,0.260959,0.260944,0.260929,0.260914,0.260899,0.260884,0.260868,0.260853,0.260838,0.260823,0.260808,0.260793,0.260778,0.260762,0.260747,0.260732,0.260717,0.260702,0.260687,0.260671,0.260656,0.260641,0.260626,0.260611,0.260596,0.26058,0.260565,0.26055,0.260535,0.26052,0.260505,0.260489,0.260474,0.260459,0.260444,0.260429,0.260414,0.260398,0.260383,0.260368,0.260353,0.260338,0.260323,0.260307,0.260292,0.260277,0.260262,0.260247,0.260232,0.260216,0.260201,0.260186,0.260171,0.260156,0.260141,0.260126,0.26011,0.260095,0.26008,0.260065,0.26005,0.260035,0.260019,0.260004,0.259989,0.259974,0.259959,0.259944,0.259928,0.259913,0.259898,0.259883,0.259868,0.259853,0.259837,0.259822,0.259807,0.259792,0.259777,0.259762,0.259746,0.259731,0.259716,0.259701,0.259686,0.259671,0.259655,0.25964,0.259625,0.25961,0.259595,0.25958,0.259564,0.259549,0.259534,0.259519,0.259504,0.259489,0.259474,0.259458,0.259443,0.259428,0.259413,0.259398,0.259383,0.259367,0.259352,0.259337,0.259322,0.259307,0.259292,0.259276,0.259261,0.259246,0.259231,0.259216,0.259201,0.259185,0.25917,0.259155,0.25914,0.259125,0.25911,0.259094,0.259079,0.259064,0.259049,0.259034,0.259019,0.259003,0.258988,0.258973,0.258958,0.258943,0.258928,0.258912,0.258897,0.258882,0.258867,0.258852,0.258837,0.258822,0.258806,0.258791,0.258776,0.258761,0.258746,0.258731,0.258715,0.2587,0.258685,0.25867,0.258655,0.25864,0.258624,0.258609,0.258594,0.258579,0.258564,0.258549,0.258533,0.258518,0.258503,0.258488,0.258473,0.258458,0.258442,0.258427,0.258412,0.258397,0.258382,0.258367,0.258351,0.258336,0.258321,0.258306,0.258291,0.258276,0.25826,0.258245,0.25823,0.258215,0.2582,0.258185,0.25817,0.258154,0.258139
0.265117,0.265102,0.265087,0.265072,0.265056,0.265041,0.265026,0.265011,0.264996,0.264981,0.264965,0.26495,0.264935,0.26492,0.264905,0.26489,0.264875,0.264859,0.264844,0.264829,0.264814,0.264799,0.264784,0.264768,0.264753,0.264738,0.264723,0.264708,0.264693,0.264677,0.264662,0.264647,0.264632,0.264617,0.264602,0.264586,0.264571,0.264556,0.264541,0.264526,0.264511,0.264495,0.26448,0.264465,0.26445,0.264435,0.26442,0.264404,0.264389,0.264374,0.264359,0.264344,0.264329,0.264313,0.264298,0.264283,0.264268,0.264253,0.264238,0.264223,0.264207,0.264192,0.264177,0.264162,0.264147,0.264132,0.264116,0.264101,0.264086,0.264071,0.264056,0.264041,0.264025,0.26401,0.263995,0.26398,0.263965,0.26395,0.263934,0.263919,0.263904,0.263889,0.263874,0.263859,0.263843,0.263828,0.263813,0.263798,0.263783,0.263768,0.263752,0.263737,0.263722,0.263707,0.263692,0.263677,0.263661,0.263646,0.263631,0.263616,0.263601,0.263586,0.263571,0.263555,0.26354,0.263525,0.26351,0.263495,0.26348,0.263464,0.263449,0.263434,0.263419,0.263404,0.263389,0.263373,0.263358,0.263343,0.263328,0.263313,0.263298,0.263282,0.263267,0.263252,0.263237,0.263222,0.263207,0.263191,0.263176,0.263161,0.263146,0.263131,0.263116,0.2631,0.263085,0.26307,0.263055,0.26304,0.263025,0.263009,0.262994,0.262979,0.262964,0.262949,0.262934,0.262919,0.262903,0.262888,0.262873,0.262858,0.262843,0.262828,0.262812,0.262797,0.262782,0.262767,0.262752,0.262737,0.262721,0.262706,0.262691,0.262676,0.262661,0.262646,0.26263,0.262615,0.2626,0.262585,0.26257,0.262555,0.262539,0.262524,0.262509,0.262494,0.262479,0.262464,0.262448,0.262433,0.262418,0.262403,0.262388,0.262373,0.262357,0.262342,0.262327,0.262312,0.262297,0.262282,0.262267,0.262251,0.262236,0.262221,0.262206,0.262191,0.262176,0.26216,0.262145,0.26213,0.262115,0.2621,0.262085,0.262069,0.262054,0.262039,0.262024,0.262009,0.261994,0.261978,0.261963,0.261948,0.261933,0.261918,0.261903,0.261887,0.261872,0.261857,0.261842,0.261827,0.261812,0.261796,0.261781,0.261766,0.261751,0.261736,0.261721,0.261705,0.26169,0.261675,0.26166,0.261645,0.26163,0.261615,0.261599,0.261584,0.261569,0.261554,0.261539,0.261524,0.261508,0.261493,0.261478,0.261463,0.261448,0.261433,0.261417,0.261402,0.261387,0.261372,0.261357,0.261342,0.261326,0.261311,0.261296,0.261281,0.261266,0.261251,0.261235,0.26122,0.261205,0.26119,0.261175,0.26116,0.261144,0.261129,0.261114,0.261099,0.261084,0.261069,0.261054,0.261038,0.261023,0.261008,0.260993,0.260978,0.260963,0.260947,0.260932,0.260917,0.260902,0.260887,0.260872,0.260856,0.260841,0.260826,0.260811,0.260796,0.260781,0.260765,0.26075,0.260735,0.26072,0.260705,0.26069,0.260674,0.260659,0.260644,0.260629,0.260614,0.260599,0.260583,0.260568,0.260553,0.260538,0.260523,0.260508,0.260492,0.260477,0.260462,0.260447,0.260432,0.260417,0.260401,0.260386,0.260371,0.260356,0.260341,0.260326,0.260311,0.260295,0.26028,0.260265,0.26025,0.260235,0.26022,0.260204,0.260189,0.260174,0.260159,0.260144,0.260129,0.260113,0.260098,0.260083,0.260068,0.260053,0.260038,0.260022,0.260007,0.259992,0.259977,0.259962,0.259947,0.259931,0.259916,0.259901,0.259886,0.259871,0.259856,0.25984,0.259825,0.25981,0.259795,0.25978,0.259765,0.25975,0.259734,0.259719,0.259704,0.259689,0.259674,0.259659,0.259643,0.259628,0.259613,0.259598,0.259583,0.259568,0.259552,0.259537,0.259522,0.259507,0.259492,0.259477,0.259461,0.259446,0.259431,0.259416,0.259401,0.259386,0.25937,0.259355,0.25934,0.259325,0.25931,0.259295,0.259279,0.259264,0.259249,0.259234,0.259219,0.259204,0.259188,0.259173,0.259158
0.266136,0.266121,0.266106,0.266091,0.266075,0.26606,0.266045,0.26603,0.266015,0.266,0.265984,0.265969,0.265954,0.265939,0.265924,0.265909,0.265893,0.265878,0.265863,0.265848,0.265833,0.265818,0.265802,0.265787,0.265772,0.265757,0.265742,0.265727,0.265712,0.265696,0.265681,0.265666,0.265651,0.265636,0.265621,0.265605,0.26559,0.265575,0.26556,0.265545,0.26553,0.265514,0.265499,0.265484,0.265469,0.265454,0.265439,0.265423,0.265408,0.265393,0.265378,0.265363,0.265348,0.265332,0.265317,0.265302,0.265287,0.265272,0.265257,0.265241,0.265226,0.265211,0.265196,0.265181,0.265166,0.26515,0.265135,0.26512,0.265105,0.26509,0.265075,0.26506,0.265044,0.265029,0.265014,0.264999,0.264984,0.264969,0.264953,0.264938,0.264923,0.264908,0.264893,0.264878,0.264862,0.264847,0.264832,0.264817,0.264802,0.264787,0.264771,0.264756,0.264741,0.264726,0.264711,0.264696,0.26468,0.264665,0.26465,0.264635,0.26462,0.264605,0.264589,0.264574,0.264559,0.264544,0.264529,0.264514,0.264499,0.264483,0.264468,0.264453,0.264438,0.264423,0.264408,0.264392,0.264377,0.264362,0.264347,0.264332,0.264317,0.264301,0.264286,0.264271,0.264256,0.264241,0.264226,0.26421,0.264195,0.26418,0.264165,0.26415,0.264135,0.264119,0.264104,0.264089,0.264074,0.264059,0.264044,0.264028,0.264013,0.263998,0.263983,0.263968,0.263953,0.263937,0.263922,0.263907,0.263892,0.263877,0.263862,0.263846,0.263831,0.263816,0.263801,0.263786,0.263771,0.263756,0.26374,0.263725,0.26371,0.263695,0.26368,0.263665,0.263649,0.263634,0.263619,0.263604,0.263589,0.263574,0.263558,0.263543,0.263528,0.263513,0.263498,0.263483,0.263467,0.263452,0.263437,0.263422,0.263407,0.263392,0.263376,0.263361,0.263346,0.263331,0.263316,0.263301,0.263285,0.26327,0.263255,0.26324,0.263225,0.26321,0.263195,0.263179,0.263164,0.263149,0.263134,0.263119,0.263104,0.263088,0.263073,0.263058,0.263043,0.263028,0.263013,0.262997,0.262982,0.262967,0.262952,0.262937,0.262922,0.262906,0.262891,0.262876,0.262861,0.262846,0.262831,0.262815,0.2628,0.262785,0.26277,0.262755,0.26274,0.262724,0.262709,0.262694,0.262679,0.262664,0.262649,0.262633,0.262618,0.262603,0.262588,0.262573,0.262558,0.262542,0.262527,0.262512,0.262497,0.262482,0.262467,0.262451,0.262436,0.262421,0.262406,0.262391,0.262376,0.262361,0.262345,0.26233,0.262315,0.2623,0.262285,0.26227,0.262254,0.262239,0.262224,0.262209,0.262194,0.262179,0.262163,0.262148,0.262133,0.262118,0.262103,0.262088,0.262072,0.262057,0.262042,0.262027,0.262012,0.261997,0.261981,0.261966,0.261951,0.261936,0.261921,0.261906,0.261891,0.261875,0.26186,0.261845,0.26183,0.261815,0.2618,0.261784,0.261769,0.261754,0.261739,0.261724,0.261709,0.261693,0.261678,0.261663,0.261648,0.261633,0.261618,0.261602,0.261587,0.261572,0.261557,0.261542,0.261527,0.261511,0.261496,0.261481,0.261466,0.261451,0.261436,0.26142,0.261405,0.26139,0.261375,0.26136,0.261345,0.261329,0.261314,0.261299,0.261284,0.261269,0.261254,0.261238,0.261223,0.261208,0.261193,0.261178,0.261163,0.261148,0.261132,0.261117,0.261102,0.261087,0.261072,0.261057,0.261041,0.261026,0.261011,0.260996,0.260981,0.260966,0.26095,0.260935,0.26092,0.260905,0.26089,0.260875,0.260859,0.260844,0.260829,0.260814,0.260799,0.260784,0.260768,0.260753,0.260738,0.260723,0.260708,0.260693,0.260677,0.260662,0.260647,0.260632,0.260617,0.260602,0.260587,0.260571,0.260556,0.260541,0.260526,0.260511,0.260496,0.26048,0.260465,0.26045,0.260435,0.26042,0.260405,0.260389,0.260374,0.260359,0.260344,0.260329,0.260314,0.260298,0.260283,0.260268,0.260253,0.260238,0.260223,0.260207,0.260192,0.260177
0.267155,0.26714,0.267125,0.26711,0.267094,0.267079,0.267064,0.267049,0.267034,0.267019,0.267003,0.266988,0.266973,0.266958,0.266943,0.266928,0.266912,0.266897,0.266882,0.266867,0.266852,0.266837,0.266821,0.266806,0.266791,0.266776,0.266761,0.266746,0.26673,0.266715,0.2667,0.266685,0.26667,0.266655,0.26664,0.266624,0.266609,0.266594,0.266579,0.266564,0.266549,0.266533,0.266518,0.266503,0.266488,0.266473,0.266458,0.266442,0.266427,0.266412,0.266397,0.266382,0.266367,0.266351,0.266336,0.266321,0.266306,0.266291,0.266276,0.26626,0.266245,0.26623,0.266215,0.2662,0.266185,0.266169,0.266154,0.266139,0.266124,0.266109,0.266094,0.266078,0.266063,0.266048,0.266033,0.266018,0.266003,0.265987,0.265972,0.265957,0.265942,0.265927,0.265912,0.265896,0.265881,0.265866,0.265851,0.265836,0.265821,0.265806,0.26579,0.265775,0.26576,0.265745,0.26573,0.265715,0.265699,0.265684,0.265669,0.265654,0.265639,0.265624,0.265608,0.265593,0.265578,0.265563,0.265548,0.265533,0.265517,0.265502,0.265487,0.265472,0.265457,0.265442,0.265426,0.265411,0.265396,0.265381,0.265366,0.265351,0.265336,0.26532,0.265305,0.26529,0.265275,0.26526,0.265245,0.265229,0.265214,0.265199,0.265184,0.265169,0.265154,0.265138,0.265123,0.265108,0.265093,0.265078,0.265063,0.265047,0.265032,0.265017,0.265002,0.264987,0.264972,0.264956,0.264941,0.264926,0.264911,0.264896,0.264881,0.264865,0.26485,0.264835,0.26482,0.264805,0.26479,0.264774,0.264759,0.264744,0.264729,0.264714,0.264699,0.264683,0.264668,0.264653,0.264638,0.264623,0.264608,0.264592,0.264577,0.264562,0.264547,0.264532,0.264517,0.264502,0.264486,0.264471,0.264456,0.264441,0.264426,0.264411,0.264395,0.26438,0.264365,0.26435,0.264335,0.26432,0.264304,0.264289,0.264274,0.264259,0.264244,0.264229,0.264213,0.264198,0.264183,0.264168,0.264153,0.264138,0.264122,0.264107,0.264092,0.264077,0.264062,0.264047,0.264031,0.264016,0.264001,0.263986,0.263971,0.263956,0.263941,0.263925,0.26391,0.263895,0.26388,0.263865,0.26385,0.263834,0.263819,0.263804,0.263789,0.263774,0.263759,0.263743,0.263728,0.263713,0.263698,0.263683,0.263668,0.263652,0.263637,0.263622,0.263607,0.263592,0.263577,0.263561,0.263546,0.263531,0.263516,0.263501,0.263486,0.26347,0.263455,0.26344,0.263425,0.26341,0.263395,0.263379,0.263364,0.263349,0.263334,0.263319,0.263304,0.263289,0.263273,0.263258,0.263243,0.263228,0.263213,0.263198,0.263182,0.263167,0.263152,0.263137,0.263122,0.263107,0.263091,0.263076,0.263061,0.263046,0.263031,0.263016,0.263,0.262985,0.26297,0.262955,0.26294,0.262925,0.262909,0.262894,0.262879,0.262864,0.262849,0.262834,0.262818,0.262803,0.262788,0.262773,0.262758,0.262743,0.262727,0.262712,0.262697,0.262682,0.262667,0.262652,0.262637,0.262621,0.262606,0.262591,0.262576,0.262561,0.262546,0.26253,0.262515,0.2625,0.262485,0.26247,0.262455,0.262439,0.262424,0.262409,0.262394,0.262379,0.262364,0.262348,0.262333,0.262318,0.262303,0.262288,0.262273,0.262257,0.262242,0.262227,0.262212,0.262197,0.262182,0.262166,0.262151,0.262136,0.262121,0.262106,0.262091,0.262075,0.26206,0.262045,0.26203,0.262015,0.262,0.261985,0.261969,0.261954,0.261939,0.261924,0.261909,0.261894,0.261878,0.261863,0.261848,0.261833,0.261818,0.261803,0.261787,0.261772,0.261757,0.261742,0.261727,0.261712,0.261696,0.261681,0.261666,0.261651,0.261636,0.261621,0.261605,0.26159,0.261575,0.26156,0.261545,0.26153,0.261514,0.261499,0.261484,0.261469,0.261454,0.261439,0.261423,0.261408,0.261393,0.261378,0.261363,0.261348,0.261333,0.261317,0.261302,0.261287,0.261272,0.261257,0.261242,0.261226,0.261211,0.261196
0.268174,0.268159,0.268144,0.268128,0.268113,0.268098,0.268083,0.268068,0.268053,0.268037,0.268022,0.268007,0.267992,0.267977,0.267962,0.267947,0.267931,0.267916,0.267901,0.267886,0.267871,0.267856,0.26784,0.267825,0.26781,0.267795,0.26778,0.267765,0.267749,0.267734,0.267719,0.267704,0.267689,0.267674,0.267658,0.267643,0.267628,0.267613,0.267598,0.267583,0.267567,0.267552,0.267537,0.267522,0.267507,0.267492,0.267476,0.267461,0.267446,0.267431,0.267416,0.267401,0.267386,0.26737,0.267355,0.26734,0.267325,0.26731,0.267295,0.267279,0.267264,0.267249,0.267234,0.267219,0.267204,0.267188,0.267173,0.267158,0.267143,0.267128,0.267113,0.267097,0.267082,0.267067,0.267052,0.267037,0.267022,0.267006,0.266991,0.266976,0.266961,0.266946,0.266931,0.266915,0.2669,0.266885,0.26687,0.266855,0.26684,0.266824,0.266809,0.266794,0.266779,0.266764,0.266749,0.266734,0.266718,0.266703,0.266688,0.266673,0.266658,0.266643,0.266627,0.266612,0.266597,0.266582,0.266567,0.266552,0.266536,0.266521,0.266506,0.266491,0.266476,0.266461,0.266445,0.26643,0.266415,0.2664,0.266385,0.26637,0.266354,0.266339,0.266324,0.266309,0.266294,0.266279,0.266263,0.266248,0.266233,0.266218,0.266203,0.266188,0.266172,0.266157,0.266142,0.266127,0.266112,0.266097,0.266082,0.266066,0.266051,0.266036,0.266021,0.266006,0.265991,0.265975,0.26596,0.265945,0.26593,0.265915,0.2659,0.265884,0.265869,0.265854,0.265839,0.265824,0.265809,0.265793,0.265778,0.265763,0.265748,0.265733,0.265718,0.265702,0.265687,0.265672,0.265657,0.265642,0.265627,0.265611,0.265596,0.265581,0.265566,0.265551,0.265536,0.26552,0.265505,0.26549,0.265475,0.26546,0.265445,0.26543,0.265414,0.265399,0.265384,0.265369,0.265354,0.265339,0.265323,0.265308,0.265293,0.265278,0.265263,0.265248,0.265232,0.265217,0.265202,0.265187,0.265172,0.265157,0.265141,0.265126,0.265111,0.265096,0.265081,0.265066,0.26505,0.265035,0.26502,0.265005,0.26499,0.264975,0.264959,0.264944,0.264929,0.264914,0.264899,0.264884,0.264868,0.264853,0.264838,0.264823,0.264808,0.264793,0.264778,0.264762,0.264747,0.264732,0.264717,0.264702,0.264687,0.264671,0.264656,0.264641,0.264626,0.264611,0.264596,0.26458,0.264565,0.26455,0.264535,0.26452,0.264505,0.264489,0.264474,0.264459,0.264444,0.264429,0.264414,0.264398,0.264383,0.264368,0.264353,0.264338,0.264323,0.264307,0.264292,0.264277,0.264262,0.264247,0.264232,0.264216,0.264201,0.264186,0.264171,0.264156,0.264141,0.264126,0.26411,0.264095,0.26408,0.264065,0.26405,0.264035,0.264019,0.264004,0.263989,0.263974,0.263959,0.263944,0.263928,0.263913,0.263898,0.263883,0.263868,0.263853,0.263837,0.263822,0.263807,0.263792,0.263777,0.263762,0.263746,0.263731,0.263716,0.263701,0.263686,0.263671,0.263655,0.26364,0.263625,0.26361,0.263595,0.26358,0.263564,0.263549,0.263534,0.263519,0.263504,0.263489,0.263474,0.263458,0.263443,0.263428,0.263413,0.263398,0.263383,0.263367,0.263352,0.263337,0.263322,0.263307,0.263292,0.263276,0.263261,0.263246,0.263231,0.263216,0.263201,0.263185,0.26317,0.263155,0.26314,0.263125,0.26311,0.263094,0.263079,0.263064,0.263049,0.263034,0.263019,0.263003,0.262988,0.262973,0.262958,0.262943,0.262928,0.262912,0.262897,0.262882,0.262867,0.262852,0.262837,0.262822,0.262806,0.262791,0.262776,0.262761,0.262746,0.262731,0.262715,0.2627,0.262685,0.26267,0.262655,0.26264,0.262624,0.262609,0.262594,0.262579,0.262564,0.262549,0.262533,0.262518,0.262503,0.262488,0.262473,0.262458,0.262442,0.262427,0.262412,0.262397,0.262382,0.262367,0.262351,0.262336,0.262321,0.262306,0.262291,0.262276,0.26226,0.262245,0.26223,0.262215
0.269193,0.269178,0.269163,0.269147,0.269132,0.269117,0.269102,0.269087,0.269072,0.269056,0.269041,0.269026,0.269011,0.268996,0.268981,0.268965,0.26895,0.268935,0.26892,0.268905,0.26889,0.268875,0.268859,0.268844,0.268829,0.268814,0.268799,0.268784,0.268768,0.268753,0.268738,0.268723,0.268708,0.268693,0.268677,0.268662,0.268647,0.268632,0.268617,0.268602,0.268586,0.268571,0.268556,0.268541,0.268526,0.268511,0.268495,0.26848,0.268465,0.26845,0.268435,0.26842,0.268404,0.268389,0.268374,0.268359,0.268344,0.268329,0.268313,0.268298,0.268283,0.268268,0.268253,0.268238,0.268223,0.268207,0.268192,0.268177,0.268162,0.268147,0.268132,0.268116,0.268101,0.268086,0.268071,0.268056,0.268041,0.268025,0.26801,0.267995,0.26798,0.267965,0.26795,0.267934,0.267919,0.267904,0.267889,0.267874,0.267859,0.267843,0.267828,0.267813,0.267798,0.267783,0.267768,0.267752,0.267737,0.267722,0.267707,0.267692,0.267677,0.267661,0.267646,0.267631,0.267616,0.267601,0.267586,0.267571,0.267555,0.26754,0.267525,0.26751,0.267495,0.26748,0.267464,0.267449,0.267434,0.267419,0.267404,0.267389,0.267373,0.267358,0.267343,0.267328,0.267313,0.267298,0.267282,0.267267,0.267252,0.267237,0.267222,0.267207,0.267191,0.267176,0.267161,0.267146,0.267131,0.267116,0.2671,0.267085,0.26707,0.267055,0.26704,0.267025,0.267009,0.266994,0.266979,0.266964,0.266949,0.266934,0.266919,0.266903,0.266888,0.266873,0.266858,0.266843,0.266828,0.266812,0.266797,0.266782,0.266767,0.266752,0.266737,0.266721,0.266706,0.266691,0.266676,0.266661,0.266646,0.26663,0.266615,0.2666,0.266585,0.26657,0.266555,0.266539,0.266524,0.266509,0.266494,0.266479,0.266464,0.266448,0.266433,0.266418,0.266403,0.266388,0.266373,0.266357,0.266342,0.266327,0.266312,0.266297,0.266282,0.266267,0.266251,0.266236,0.266221,0.266206,0.266191,0.266176,0.26616,0.266145,0.26613,0.266115,0.2661,0.266085,0.266069,0.266054,0.266039,0.266024,0.266009,0.265994,0.265978,0.265963,0.265948,0.265933,0.265918,0.265903,0.265887,0.265872,0.265857,0.265842,0.265827,0.265812,0.265796,0.265781,0.265766,0.265751,0.265736,0.265721,0.265705,0.26569,0.265675,0.26566,0.265645,0.26563,0.265615,0.265599,0.265584,0.265569,0.265554,0.265539,0.265524,0.265508,0.265493,0.265478,0.265463,0.265448,0.265433,0.265417,0.265402,0.265387,0.265372,0.265357,0.265342,0.265326,0.265311,0.265296,0.265281,0.265266,0.265251,0.265235,0.26522,0.265205,0.26519,0.265175,0.26516,0.265144,0.265129,0.265114,0.265099,0.265084,0.265069,0.265053,0.265038,0.265023,0.265008,0.264993,0.264978,0.264963,0.264947,0.264932,0.264917,0.264902,0.264887,0.264872,0.264856,0.264841,0.264826,0.264811,0.264796,0.264781,0.264765,0.26475,0.264735,0.26472,0.264705,0.26469,0.264674,0.264659,0.264644,0.264629,0.264614,0.264599,0.264583,0.264568,0.264553,0.264538,0.264523,0.264508,0.264492,0.264477,0.264462,0.264447,0.264432,0.264417,0.264401,0.264386,0.264371,0.264356,0.264341,0.264326,0.264311,0.264295,0.26428,0.264265,0.26425,0.264235,0.26422,0.264204,0.264189,0.264174,0.264159,0.264144,0.264129,0.264113,0.264098,0.264083,0.264068,0.264053,0.264038,0.264022,0.264007,0.263992,0.263977,0.263962,0.263947,0.263931,0.263916,0.263901,0.263886,0.263871,0.263856,0.26384,0.263825,0.26381,0.263795,0.26378,0.263765,0.263749,0.263734,0.263719,0.263704,0.263689,0.263674,0.263659,0.263643,0.263628,0.263613,0.263598,0.263583,0.263568,0.263552,0.263537,0.263522,0.263507,0.263492,0.263477,0.263461,0.263446,0.263431,0.263416,0.263401,0.263386,0.26337,0.263355,0.26334,0.263325,0.26331,0.263295,0.263279,0.263264,0.263249,0.263234
0.270212,0.270197,0.270182,0.270166,0.270151,0.270136,0.270121,0.270106,0.270091,0.270075,0.27006,0.270045,0.27003,0.270015,0.27,0.269984,0.269969,0.269954,0.269939,0.269924,0.269909,0.269893,0.269878,0.269863,0.269848,0.269833,0.269818,0.269802,0.269787,0.269772,0.269757,0.269742,0.269727,0.269712,0.269696,0.269681,0.269666,0.269651,0.269636,0.269621,0.269605,0.26959,0.269575,0.26956,0.269545,0.26953,0.269514,0.269499,0.269484,0.269469,0.269454,0.269439,0.269423,0.269408,0.269393,0.269378,0.269363,0.269348,0.269332,0.269317,0.269302,0.269287,0.269272,0.269257,0.269241,0.269226,0.269211,0.269196,0.269181,0.269166,0.26915,0.269135,0.26912,0.269105,0.26909,0.269075,0.26906,0.269044,0.269029,0.269014,0.268999,0.268984,0.268969,0.268953,0.268938,0.268923,0.268908,0.268893,0.268878,0.268862,0.268847,0.268832,0.268817,0.268802,0.268787,0.268771,0.268756,0.268741,0.268726,0.268711,0.268696,0.26868,0.268665,0.26865,0.268635,0.26862,0.268605,0.268589,0.268574,0.268559,0.268544,0.268529,0.268514,0.268498,0.268483,0.268468,0.268453,0.268438,0.268423,0.268408,0.268392,0.268377,0.268362,0.268347,0.268332,0.268317,0.268301,0.268286,0.268271,0.268256,0.268241,0.268226,0.26821,0.268195,0.26818,0.268165,0.26815,0.268135,0.268119,0.268104,0.268089,0.268074,0.268059,0.268044,0.268028,0.268013,0.267998,0.267983,0.267968,0.267953,0.267937,0.267922,0.267907,0.267892,0.267877,0.267862,0.267846,0.267831,0.267816,0.267801,0.267786,0.267771,0.267756,0.26774,0.267725,0.26771,0.267695,0.26768,0.267665,0.267649,0.267634,0.267619,0.267604,0.267589,0.267574,0.267558,0.267543,0.267528,0.267513,0.267498,0.267483,0.267467,0.267452,0.267437,0.267422,0.267407,0.267392,0.267376,0.267361,0.267346,0.267331,0.267316,0.267301,0.267285,0.26727,0.267255,0.26724,0.267225,0.26721,0.267194,0.267179,0.267164,0.267149,0.267134,0.267119,0.267104,0.267088,0.267073,0.267058,0.267043,0.267028,0.267013,0.266997,0.266982,0.266967,0.266952,0.266937,0.266922,0.266906,0.266891,0.266876,0.266861,0.266846,0.266831,0.266815,0.2668,0.266785,0.26677,0.266755,0.26674,0.266724,0.266709,0.266694,0.266679,0.266664,0.266649,0.266633,0.266618,0.266603,0.266588,0.266573,0.266558,0.266542,0.266527,0.266512,0.266497,0.266482,0.266467,0.266452,0.266436,0.266421,0.266406,0.266391,0.266376,0.266361,0.266345,0.26633,0.266315,0.2663,0.266285,0.26627,0.266254,0.266239,0.266224,0.266209,0.266194,0.266179,0.266163,0.266148,0.266133,0.266118,0.266103,0.266088,0.266072,0.266057,0.266042,0.266027,0.266012,0.265997,0.265981,0.265966,0.265951,0.265936,0.265921,0.265906,0.265891,0.265875,0.26586,0.265845,0.26583,0.265815,0.2658,0.265784,0.265769,0.265754,0.265739,0.265724,0.265709,0.265693,0.265678,0.265663,0.265648,0.265633,0.265618,0.265602,0.265587,0.265572,0.265557,0.265542,0.265527,0.265511,0.265496,0.265481,0.265466,0.265451,0.265436,0.26542,0.265405,0.26539,0.265375,0.26536,0.265345,0.265329,0.265314,0.265299,0.265284,0.265269,0.265254,0.265238,0.265223,0.265208,0.265193,0.265178,0.265163,0.265148,0.265132,0.265117,0.265102,0.265087,0.265072,0.265057,0.265041,0.265026,0.265011,0.264996,0.264981,0.264966,0.26495,0.264935,0.26492,0.264905,0.26489,0.264875,0.264859,0.264844,0.264829,0.264814,0.264799,0.264784,0.264768,0.264753,0.264738,0.264723,0.264708,0.264693,0.264677,0.264662,0.264647,0.264632,0.264617,0.264602,0.264587,0.264571,0.264556,0.264541,0.264526,0.264511,0.264496,0.26448,0.264465,0.26445,0.264435,0.26442,0.264405,0.264389,0.264374,0.264359,0.264344,0.264329,0.264314,0.264298,0.264283,0.264268,0.264253
0.271231,0.271216,0.271201,0.271185,0.27117,0.271155,0.27114,0.271125,0.27111,0.271094,0.271079,0.271064,0.271049,0.271034,0.271019,0.271003,0.270988,0.270973,0.270958,0.270943,0.270928,0.270912,0.270897,0.270882,0.270867,0.270852,0.270837,0.270821,0.270806,0.270791,0.270776,0.270761,0.270746,0.27073,0.270715,0.2707,0.270685,0.27067,0.270655,0.270639,0.270624,0.270609,0.270594,0.270579,0.270564,0.270549,0.270533,0.270518,0.270503,0.270488,0.270473,0.270458,0.270442,0.270427,0.270412,0.270397,0.270382,0.270367,0.270351,0.270336,0.270321,0.270306,0.270291,0.270276,0.27026,0.270245,0.27023,0.270215,0.2702,0.270185,0.270169,0.270154,0.270139,0.270124,0.270109,0.270094,0.270078,0.270063,0.270048,0.270033,0.270018,0.270003,0.269987,0.269972,0.269957,0.269942,0.269927,0.269912,0.269897,0.269881,0.269866,0.269851,0.269836,0.269821,0.269806,0.26979,0.269775,0.26976,0.269745,0.26973,0.269715,0.269699,0.269684,0.269669,0.269654,0.269639,0.269624,0.269608,0.269593,0.269578,0.269563,0.269548,0.269533,0.269517,0.269502,0.269487,0.269472,0.269457,0.269442,0.269426,0.269411,0.269396,0.269381,0.269366,0.269351,0.269336,0.26932,0.269305,0.26929,0.269275,0.26926,0.269245,0.269229,0.269214,0.269199,0.269184,0.269169,0.269154,0.269138,0.269123,0.269108,0.269093,0.269078,0.269063,0.269047,0.269032,0.269017,0.269002,0.268987,0.268972,0.268956,0.268941,0.268926,0.268911,0.268896,0.268881,0.268865,0.26885,0.268835,0.26882,0.268805,0.26879,0.268774,0.268759,0.268744,0.268729,0.268714,0.268699,0.268683,0.268668,0.268653,0.268638,0.268623,0.268608,0.268593,0.268577,0.268562,0.268547,0.268532,0.268517,0.268502,0.268486,0.268471,0.268456,0.268441,0.268426,0.268411,0.268395,0.26838,0.268365,0.26835,0.268335,0.26832,0.268304,0.268289,0.268274,0.268259,0.268244,0.268229,0.268213,0.268198,0.268183,0.268168,0.268153,0.268138,0.268122,0.268107,0.268092,0.268077,0.268062,0.268047,0.268032,0.268016,0.268001,0.267986,0.267971,0.267956,0.267941,0.267925,0.26791,0.267895,0.26788,0.267865,0.26785,0.267834,0.267819,0.267804,0.267789,0.267774,0.267759,0.267743,0.267728,0.267713,0.267698,0.267683,0.267668,0.267652,0.267637,0.267622,0.267607,0.267592,0.267577,0.267561,0.267546,0.267531,0.267516,0.267501,0.267486,0.26747,0.267455,0.26744,0.267425,0.26741,0.267395,0.267379,0.267364,0.267349,0.267334,0.267319,0.267304,0.267289,0.267273,0.267258,0.267243,0.267228,0.267213,0.267198,0.267182,0.267167,0.267152,0.267137,0.267122,0.267107,0.267091,0.267076,0.267061,0.267046,0.267031,0.267016,0.267,0.266985,0.26697,0.266955,0.26694,0.266925,0.266909,0.266894,0.266879,0.266864,0.266849,0.266834,0.266818,0.266803,0.266788,0.266773,0.266758,0.266743,0.266728,0.266712,0.266697,0.266682,0.266667,0.266652,0.266637,0.266621,0.266606,0.266591,0.266576,0.266561,0.266546,0.26653,0.266515,0.2665,0.266485,0.26647,0.266455,0.266439,0.266424,0.266409,0.266394,0.266379,0.266364,0.266348,0.266333,0.266318,0.266303,0.266288,0.266273,0.266257,0.266242,0.266227,0.266212,0.266197,0.266182,0.266166,0.266151,0.266136,0.266121,0.266106,0.266091,0.266075,0.26606,0.266045,0.26603,0.266015,0.266,0.265985,0.265969,0.265954,0.265939,0.265924,0.265909,0.265894,0.265878,0.265863,0.265848,0.265833,0.265818,0.265803,0.265787,0.265772,0.265757,0.265742,0.265727,0.265712,0.265696,0.265681,0.265666,0.265651,0.265636,0.265621,0.265605,0.26559,0.265575,0.26556,0.265545,0.26553,0.265514,0.265499,0.265484,0.265469,0.265454,0.265439,0.265424,0.265408,0.265393,0.265378,0.265363,0.265348,0.265333,0.265317,0.265302,0.265287,0.265272
0.27225,0.272235,0.272219,0.272204,0.272189,0.272174,0.272159,0.272144,0.272128,0.272113,0.272098,0.272083,0.272068,0.272053,0.272038,0.272022,0.272007,0.271992,0.271977,0.271962,0.271947,0.271931,0.271916,0.271901,0.271886,0.271871,0.271856,0.27184,0.271825,0.27181,0.271795,0.27178,0.271765,0.271749,0.271734,0.271719,0.271704,0.271689,0.271674,0.271658,0.271643,0.271628,0.271613,0.271598,0.271583,0.271567,0.271552,0.271537,0.271522,0.271507,0.271492,0.271477,0.271461,0.271446,0.271431,0.271416,0.271401,0.271386,0.27137,0.271355,0.27134,0.271325,0.27131,0.271295,0.271279,0.271264,0.271249,0.271234,0.271219,0.271204,0.271188,0.271173,0.271158,0.271143,0.271128,0.271113,0.271097,0.271082,0.271067,0.271052,0.271037,0.271022,0.271006,0.270991,0.270976,0.270961,0.270946,0.270931,0.270915,0.2709,0.270885,0.27087,0.270855,0.27084,0.270824,0.270809,0.270794,0.270779,0.270764,0.270749,0.270734,0.270718,0.270703,0.270688,0.270673,0.270658,0.270643,0.270627,0.270612,0.270597,0.270582,0.270567,0.270552,0.270536,0.270521,0.270506,0.270491,0.270476,0.270461,0.270445,0.27043,0.270415,0.2704,0.270385,0.27037,0.270354,0.270339,0.270324,0.270309,0.270294,0.270279,0.270263,0.270248,0.270233,0.270218,0.270203,0.270188,0.270173,0.270157,0.270142,0.270127,0.270112,0.270097,0.270082,0.270066,0.270051,0.270036,0.270021,0.270006,0.269991,0.269975,0.26996,0.269945,0.26993,0.269915,0.2699,0.269884,0.269869,0.269854,0.269839,0.269824,0.269809,0.269793,0.269778,0.269763,0.269748,0.269733,0.269718,0.269702,0.269687,0.269672,0.269657,0.269642,0.269627,0.269611,0.269596,0.269581,0.269566,0.269551,0.269536,0.26952,0.269505,0.26949,0.269475,0.26946,0.269445,0.26943,0.269414,0.269399,0.269384,0.269369,0.269354,0.269339,0.269323,0.269308,0.269293,0.269278,0.269263,0.269248,0.269232,0.269217,0.269202,0.269187,0.269172,0.269157,0.269141,0.269126,0.269111,0.269096,0.269081,0.269066,0.26905,0.269035,0.26902,0.269005,0.26899,0.268975,0.268959,0.268944,0.268929,0.268914,0.268899,0.268884,0.268869,0.268853,0.268838,0.268823,0.268808,0.268793,0.268778,0.268762,0.268747,0.268732,0.268717,0.268702,0.268687,0.268671,0.268656,0.268641,0.268626,0.268611,0.268596,0.26858,0.268565,0.26855,0.268535,0.26852,0.268505,0.268489,0.268474,0.268459,0.268444,0.268429,0.268414,0.268398,0.268383,0.268368,0.268353,0.268338,0.268323,0.268307,0.268292,0.268277,0.268262,0.268247,0.268232,0.268216,0.268201,0.268186,0.268171,0.268156,0.268141,0.268126,0.26811,0.268095,0.26808,0.268065,0.26805,0.268035,0.268019,0.268004,0.267989,0.267974,0.267959,0.267944,0.267928,0.267913,0.267898,0.267883,0.267868,0.267853,0.267837,0.267822,0.267807,0.267792,0.267777,0.267762,0.267746,0.267731,0.267716,0.267701,0.267686,0.267671,0.267655,0.26764,0.267625,0.26761,0.267595,0.26758,0.267565,0.267549,0.267534,0.267519,0.267504,0.267489,0.267474,0.267458,0.267443,0.267428,0.267413,0.267398,0.267383,0.267367,0.267352,0.267337,0.267322,0.267307,0.267292,0.267276,0.267261,0.267246,0.267231,0.267216,0.267201,0.267185,0.26717,0.267155,0.26714,0.267125,0.26711,0.267094,0.267079,0.267064,0.267049,0.267034,0.267019,0.267003,0.266988,0.266973,0.266958,0.266943,0.266928,0.266912,0.266897,0.266882,0.266867,0.266852,0.266837,0.266822,0.266806,0.266791,0.266776,0.266761,0.266746,0.266731,0.266715,0.2667,0.266685,0.26667,0.266655,0.26664,0.266624,0.266609,0.266594,0.266579,0.266564,0.266549,0.266533,0.266518,0.266503,0.266488,0.266473,0.266458,0.266442,0.266427,0.266412,0.266397,0.266382,0.266367,0.266351,0.266336,0.266321,0.266306,0.266291
0.273269,0.273254,0.273238,0.273223,0.273208,0.273193,0.273178,0.273163,0.273147,0.273132,0.273117,0.273102,0.273087,0.273072,0.273056,0.273041,0.273026,0.273011,0.272996,0.272981,0.272965,0.27295,0.272935,0.27292,0.272905,0.27289,0.272875,0.272859,0.272844,0.272829,0.272814,0.272799,0.272784,0.272768,0.272753,0.272738,0.272723,0.272708,0.272693,0.272677,0.272662,0.272647,0.272632,0.272617,0.272602,0.272586,0.272571,0.272556,0.272541,0.272526,0.272511,0.272495,0.27248,0.272465,0.27245,0.272435,0.27242,0.272404,0.272389,0.272374,0.272359,0.272344,0.272329,0.272314,0.272298,0.272283,0.272268,0.272253,0.272238,0.272223,0.272207,0.272192,0.272177,0.272162,0.272147,0.272132,0.272116,0.272101,0.272086,0.272071,0.272056,0.272041,0.272025,0.27201,0.271995,0.27198,0.271965,0.27195,0.271934,0.271919,0.271904,0.271889,0.271874,0.271859,0.271843,0.271828,0.271813,0.271798,0.271783,0.271768,0.271752,0.271737,0.271722,0.271707,0.271692,0.271677,0.271661,0.271646,0.271631,0.271616,0.271601,0.271586,0.271571,0.271555,0.27154,0.271525,0.27151,0.271495,0.27148,0.271464,0.271449,0.271434,0.271419,0.271404,0.271389,0.271373,0.271358,0.271343,0.271328,0.271313,0.271298,0.271282,0.271267,0.271252,0.271237,0.271222,0.271207,0.271191,0.271176,0.271161,0.271146,0.271131,0.271116,0.2711,0.271085,0.27107,0.271055,0.27104,0.271025,0.27101,0.270994,0.270979,0.270964,0.270949,0.270934,0.270919,0.270903,0.270888,0.270873,0.270858,0.270843,0.270828,0.270812,0.270797,0.270782,0.270767,0.270752,0.270737,0.270721,0.270706,0.270691,0.270676,0.270661,0.270646,0.27063,0.270615,0.2706,0.270585,0.27057,0.270555,0.270539,0.270524,0.270509,0.270494,0.270479,0.270464,0.270448,0.270433,0.270418,0.270403,0.270388,0.270373,0.270357,0.270342,0.270327,0.270312,0.270297,0.270282,0.270267,0.270251,0.270236,0.270221,0.270206,0.270191,0.270176,0.27016,0.270145,0.27013,0.270115,0.2701,0.270085,0.270069,0.270054,0.270039,0.270024,0.270009,0.269994,0.269978,0.269963,0.269948,0.269933,0.269918,0.269903,0.269887,0.269872,0.269857,0.269842,0.269827,0.269812,0.269796,0.269781,0.269766,0.269751,0.269736,0.269721,0.269706,0.26969,0.269675,0.26966,0.269645,0.26963,0.269615,0.269599,0.269584,0.269569,0.269554,0.269539,0.269524,0.269508,0.269493,0.269478,0.269463,0.269448,0.269433,0.269417,0.269402,0.269387,0.269372,0.269357,0.269342,0.269326,0.269311,0.269296,0.269281,0.269266,0.269251,0.269235,0.26922,0.269205,0.26919,0.269175,0.26916,0.269144,0.269129,0.269114,0.269099,0.269084,0.269069,0.269053,0.269038,0.269023,0.269008,0.268993,0.268978,0.268963,0.268947,0.268932,0.268917,0.268902,0.268887,0.268872,0.268856,0.268841,0.268826,0.268811,0.268796,0.268781,0.268765,0.26875,0.268735,0.26872,0.268705,0.26869,0.268674,0.268659,0.268644,0.268629,0.268614,0.268599,0.268583,0.268568,0.268553,0.268538,0.268523,0.268508,0.268492,0.268477,0.268462,0.268447,0.268432,0.268417,0.268402,0.268386,0.268371,0.268356,0.268341,0.268326,0.268311,0.268295,0.26828,0.268265,0.26825,0.268235,0.26822,0.268204,0.268189,0.268174,0.268159,0.268144,0.268129,0.268113,0.268098,0.268083,0.268068,0.268053,0.268038,0.268022,0.268007,0.267992,0.267977,0.267962,0.267947,0.267931,0.267916,0.267901,0.267886,0.267871,0.267856,0.26784,0.267825,0.26781,0.267795,0.26778,0.267765,0.267749,0.267734,0.267719,0.267704,0.267689,0.267674,0.267659,0.267643,0.267628,0.267613,0.267598,0.267583,0.267568,0.267552,0.267537,0.267522,0.267507,0.267492,0.267477,0.267461,0.267446,0.267431,0.267416,0.267401,0.267386,0.26737,0.267355,0.26734,0.267325,0.26731
0.274288,0.274273,0.274257,0.274242,0.274227,0.274212,0.274197,0.274182,0.274166,0.274151,0.274136,0.274121,0.274106,0.274091,0.274075,0.27406,0.274045,0.27403,0.274015,0.274,0.273984,0.273969,0.273954,0.273939,0.273924,0.273909,0.273893,0.273878,0.273863,0.273848,0.273833,0.273818,0.273802,0.273787,0.273772,0.273757,0.273742,0.273727,0.273712,0.273696,0.273681,0.273666,0.273651,0.273636,0.273621,0.273605,0.27359,0.273575,0.27356,0.273545,0.27353,0.273514,0.273499,0.273484,0.273469,0.273454,0.273439,0.273423,0.273408,0.273393,0.273378,0.273363,0.273348,0.273332,0.273317,0.273302,0.273287,0.273272,0.273257,0.273241,0.273226,0.273211,0.273196,0.273181,0.273166,0.273151,0.273135,0.27312,0.273105,0.27309,0.273075,0.27306,0.273044,0.273029,0.273014,0.272999,0.272984,0.272969,0.272953,0.272938,0.272923,0.272908,0.272893,0.272878,0.272862,0.272847,0.272832,0.272817,0.272802,0.272787,0.272771,0.272756,0.272741,0.272726,0.272711,0.272696,0.27268,0.272665,0.27265,0.272635,0.27262,0.272605,0.272589,0.272574,0.272559,0.272544,0.272529,0.272514,0.272498,0.272483,0.272468,0.272453,0.272438,0.272423,0.272408,0.272392,0.272377,0.272362,0.272347,0.272332,0.272317,0.272301,0.272286,0.272271,0.272256,0.272241,0.272226,0.27221,0.272195,0.27218,0.272165,0.27215,0.272135,0.272119,0.272104,0.272089,0.272074,0.272059,0.272044,0.272028,0.272013,0.271998,0.271983,0.271968,0.271953,0.271937,0.271922,0.271907,0.271892,0.271877,0.271862,0.271847,0.271831,0.271816,0.271801,0.271786,0.271771,0.271756,0.27174,0.271725,0.27171,0.271695,0.27168,0.271665,0.271649,0.271634,0.271619,0.271604,0.271589,0.271574,0.271558,0.271543,0.271528,0.271513,0.271498,0.271483,0.271467,0.271452,0.271437,0.271422,0.271407,0.271392,0.271376,0.271361,0.271346,0.271331,0.271316,0.271301,0.271285,0.27127,0.271255,0.27124,0.271225,0.27121,0.271194,0.271179,0.271164,0.271149,0.271134,0.271119,0.271104,0.271088,0.271073,0.271058,0.271043,0.271028,0.271013,0.270997,0.270982,0.270967,0.270952,0.270937,0.270922,0.270906,0.270891,0.270876,0.270861,0.270846,0.270831,0.270815,0.2708,0.270785,0.27077,0.270755,0.27074,0.270724,0.270709,0.270694,0.270679,0.270664,0.270649,0.270633,0.270618,0.270603,0.270588,0.270573,0.270558,0.270543,0.270527,0.270512,0.270497,0.270482,0.270467,0.270452,0.270436,0.270421,0.270406,0.270391,0.270376,0.270361,0.270345,0.27033,0.270315,0.2703,0.270285,0.27027,0.270254,0.270239,0.270224,0.270209,0.270194,0.270179,0.270163,0.270148,0.270133,0.270118,0.270103,0.270088,0.270072,0.270057,0.270042,0.270027,0.270012,0.269997,0.269981,0.269966,0.269951,0.269936,0.269921,0.269906,0.269891,0.269875,0.26986,0.269845,0.26983,0.269815,0.2698,0.269784,0.269769,0.269754,0.269739,0.269724,0.269709,0.269693,0.269678,0.269663,0.269648,0.269633,0.269618,0.269602,0.269587,0.269572,0.269557,0.269542,0.269527,0.269511,0.269496,0.269481,0.269466,0.269451,0.269436,0.26942,0.269405,0.26939,0.269375,0.26936,0.269345,0.269329,0.269314,0.269299,0.269284,0.269269,0.269254,0.269239,0.269223,0.269208,0.269193,0.269178,0.269163,0.269148,0.269132,0.269117,0.269102,0.269087,0.269072,0.269057,0.269041,0.269026,0.269011,0.268996,0.268981,0.268966,0.26895,0.268935,0.26892,0.268905,0.26889,0.268875,0.268859,0.268844,0.268829,0.268814,0.268799,0.268784,0.268768,0.268753,0.268738,0.268723,0.268708,0.268693,0.268677,0.268662,0.268647,0.268632,0.268617,0.268602,0.268587,0.268571,0.268556,0.268541,0.268526,0.268511,0.268496,0.26848,0.268465,0.26845,0.268435,0.26842,0.268405,0.268389,0.268374,0.268359,0.268344,0.268329
0.275307,0.275292,0.275276,0.275261,0.275246,0.275231,0.275216,0.275201,0.275185,0.27517,0.275155,0.27514,0.275125,0.27511,0.275094,0.275079,0.275064,0.275049,0.275034,0.275019,0.275003,0.274988,0.274973,0.274958,0.274943,0.274928,0.274912,0.274897,0.274882,0.274867,0.274852,0.274837,0.274821,0.274806,0.274791,0.274776,0.274761,0.274746,0.27473,0.274715,0.2747,0.274685,0.27467,0.274655,0.274639,0.274624,0.274609,0.274594,0.274579,0.274564,0.274549,0.274533,0.274518,0.274503,0.274488,0.274473,0.274458,0.274442,0.274427,0.274412,0.274397,0.274382,0.274367,0.274351,0.274336,0.274321,0.274306,0.274291,0.274276,0.27426,0.274245,0.27423,0.274215,0.2742,0.274185,0.274169,0.274154,0.274139,0.274124,0.274109,0.274094,0.274078,0.274063,0.274048,0.274033,0.274018,0.274003,0.273988,0.273972,0.273957,0.273942,0.273927,0.273912,0.273897,0.273881,0.273866,0.273851,0.273836,0.273821,0.273806,0.27379,0.273775,0.27376,0.273745,0.27373,0.273715,0.273699,0.273684,0.273669,0.273654,0.273639,0.273624,0.273608,0.273593,0.273578,0.273563,0.273548,0.273533,0.273517,0.273502,0.273487,0.273472,0.273457,0.273442,0.273426,0.273411,0.273396,0.273381,0.273366,0.273351,0.273336,0.27332,0.273305,0.27329,0.273275,0.27326,0.273245,0.273229,0.273214,0.273199,0.273184,0.273169,0.273154,0.273138,0.273123,0.273108,0.273093,0.273078,0.273063,0.273047,0.273032,0.273017,0.273002,0.272987,0.272972,0.272956,0.272941,0.272926,0.272911,0.272896,0.272881,0.272865,0.27285,0.272835,0.27282,0.272805,0.27279,0.272774,0.272759,0.272744,0.272729,0.272714,0.272699,0.272684,0.272668,0.272653,0.272638,0.272623,0.272608,0.272593,0.272577,0.272562,0.272547,0.272532,0.272517,0.272502,0.272486,0.272471,0.272456,0.272441,0.272426,0.272411,0.272395,0.27238,0.272365,0.27235,0.272335,0.27232,0.272304,0.272289,0.272274,0.272259,0.272244,0.272229,0.272213,0.272198,0.272183,0.272168,0.272153,0.272138,0.272122,0.272107,0.272092,0.272077,0.272062,0.272047,0.272032,0.272016,0.272001,0.271986,0.271971,0.271956,0.271941,0.271925,0.27191,0.271895,0.27188,0.271865,0.27185,0.271834,0.271819,0.271804,0.271789,0.271774,0.271759,0.271743,0.271728,0.271713,0.271698,0.271683,0.271668,0.271652,0.271637,0.271622,0.271607,0.271592,0.271577,0.271561,0.271546,0.271531,0.271516,0.271501,0.271486,0.27147,0.271455,0.27144,0.271425,0.27141,0.271395,0.27138,0.271364,0.271349,0.271334,0.271319,0.271304,0.271289,0.271273,0.271258,0.271243,0.271228,0.271213,0.271198,0.271182,0.271167,0.271152,0.271137,0.271122,0.271107,0.271091,0.271076,0.271061,0.271046,0.271031,0.271016,0.271,0.270985,0.27097,0.270955,0.27094,0.270925,0.270909,0.270894,0.270879,0.270864,0.270849,0.270834,0.270818,0.270803,0.270788,0.270773,0.270758,0.270743,0.270728,0.270712,0.270697,0.270682,0.270667,0.270652,0.270637,0.270621,0.270606,0.270591,0.270576,0.270561,0.270546,0.27053,0.270515,0.2705,0.270485,0.27047,0.270455,0.270439,0.270424,0.270409,0.270394,0.270379,0.270364,0.270348,0.270333,0.270318,0.270303,0.270288,0.270273,0.270257,0.270242,0.270227,0.270212,0.270197,0.270182,0.270166,0.270151,0.270136,0.270121,0.270106,0.270091,0.270076,0.27006,0.270045,0.27003,0.270015,0.27,0.269985,0.269969,0.269954,0.269939,0.269924,0.269909,0.269894,0.269878,0.269863,0.269848,0.269833,0.269818,0.269803,0.269787,0.269772,0.269757,0.269742,0.269727,0.269712,0.269696,0.269681,0.269666,0.269651,0.269636,0.269621,0.269605,0.26959,0.269575,0.26956,0.269545,0.26953,0.269514,0.269499,0.269484,0.269469,0.269454,0.269439,0.269424,0.269408,0.269393,0.269378,0.269363,0.269348
0.276326,0.27631,0.276295,0.27628,0.276265,0.27625,0.276235,0.276219,0.276204,0.276189,0.276174,0.276159,0.276144,0.276129,0.276113,0.276098,0.276083,0.276068,0.276053,0.276038,0.276022,0.276007,0.275992,0.275977,0.275962,0.275947,0.275931,0.275916,0.275901,0.275886,0.275871,0.275856,0.27584,0.275825,0.27581,0.275795,0.27578,0.275765,0.275749,0.275734,0.275719,0.275704,0.275689,0.275674,0.275658,0.275643,0.275628,0.275613,0.275598,0.275583,0.275567,0.275552,0.275537,0.275522,0.275507,0.275492,0.275477,0.275461,0.275446,0.275431,0.275416,0.275401,0.275386,0.27537,0.275355,0.27534,0.275325,0.27531,0.275295,0.275279,0.275264,0.275249,0.275234,0.275219,0.275204,0.275188,0.275173,0.275158,0.275143,0.275128,0.275113,0.275097,0.275082,0.275067,0.275052,0.275037,0.275022,0.275006,0.274991,0.274976,0.274961,0.274946,0.274931,0.274915,0.2749,0.274885,0.27487,0.274855,0.27484,0.274825,0.274809,0.274794,0.274779,0.274764,0.274749,0.274734,0.274718,0.274703,0.274688,0.274673,0.274658,0.274643,0.274627,0.274612,0.274597,0.274582,0.274567,0.274552,0.274536,0.274521,0.274506,0.274491,0.274476,0.274461,0.274445,0.27443,0.274415,0.2744,0.274385,0.27437,0.274354,0.274339,0.274324,0.274309,0.274294,0.274279,0.274263,0.274248,0.274233,0.274218,0.274203,0.274188,0.274173,0.274157,0.274142,0.274127,0.274112,0.274097,0.274082,0.274066,0.274051,0.274036,0.274021,0.274006,0.273991,0.273975,0.27396,0.273945,0.27393,0.273915,0.2739,0.273884,0.273869,0.273854,0.273839,0.273824,0.273809,0.273793,0.273778,0.273763,0.273748,0.273733,0.273718,0.273702,0.273687,0.273672,0.273657,0.273642,0.273627,0.273611,0.273596,0.273581,0.273566,0.273551,0.273536,0.27352,0.273505,0.27349,0.273475,0.27346,0.273445,0.27343,0.273414,0.273399,0.273384,0.273369,0.273354,0.273339,0.273323,0.273308,0.273293,0.273278,0.273263,0.273248,0.273232,0.273217,0.273202,0.273187,0.273172,0.273157,0.273141,0.273126,0.273111,0.273096,0.273081,0.273066,0.27305,0.273035,0.27302,0.273005,0.27299,0.272975,0.272959,0.272944,0.272929,0.272914,0.272899,0.272884,0.272869,0.272853,0.272838,0.272823,0.272808,0.272793,0.272778,0.272762,0.272747,0.272732,0.272717,0.272702,0.272687,0.272671,0.272656,0.272641,0.272626,0.272611,0.272596,0.27258,0.272565,0.27255,0.272535,0.27252,0.272505,0.272489,0.272474,0.272459,0.272444,0.272429,0.272414,0.272398,0.272383,0.272368,0.272353,0.272338,0.272323,0.272307,0.272292,0.272277,0.272262,0.272247,0.272232,0.272216,0.272201,0.272186,0.272171,0.272156,0.272141,0.272126,0.27211,0.272095,0.27208,0.272065,0.27205,0.272035,0.272019,0.272004,0.271989,0.271974,0.271959,0.271944,0.271928,0.271913,0.271898,0.271883,0.271868,0.271853,0.271837,0.271822,0.271807,0.271792,0.271777,0.271762,0.271746,0.271731,0.271716,0.271701,0.271686,0.271671,0.271655,0.27164,0.271625,0.27161,0.271595,0.27158,0.271565,0.271549,0.271534,0.271519,0.271504,0.271489,0.271474,0.271458,0.271443,0.271428,0.271413,0.271398,0.271383,0.271367,0.271352,0.271337,0.271322,0.271307,0.271292,0.271276,0.271261,0.271246,0.271231,0.271216,0.271201,0.271185,0.27117,0.271155,0.27114,0.271125,0.27111,0.271094,0.271079,0.271064,0.271049,0.271034,0.271019,0.271003,0.270988,0.270973,0.270958,0.270943,0.270928,0.270912,0.270897,0.270882,0.270867,0.270852,0.270837,0.270822,0.270806,0.270791,0.270776,0.270761,0.270746,0.270731,0.270715,0.2707,0.270685,0.27067,0.270655,0.27064,0.270624,0.270609,0.270594,0.270579,0.270564,0.270549,0.270533,0.270518,0.270503,0.270488,0.270473,0.270458,0.270442,0.270427,0.270412,0.270397,0.270382,0.270367
